1017.080384 -1061.297428 720.000000
1015.114639 -1061.666005 720.000000
1013.148895 -1062.034582 720.000000
1011.183151 -1062.403159 720.000000
1009.217406 -1062.771736 720.000000
1007.251662 -1063.140313 720.000000
1005.285918 -1063.508890 720.000000
1003.320173 -1063.877468 720.000000
1001.354429 -1064.246045 720.000000
999.388684 -1064.614622 720.000000
997.422940 -1064.983199 720.000000
995.457196 -1065.351776 720.000000
993.491451 -1065.720353 720.000000
991.525707 -1066.088930 720.000000
989.559963 -1066.457507 720.000000
987.594218 -1066.826084 720.000000
985.628474 -1067.194661 720.000000
983.662729 -1067.563238 720.000000
981.696985 -1067.931815 720.000000
979.731241 -1068.300392 720.000000
977.765496 -1068.668969 720.000000
975.799752 -1069.037547 720.000000
973.834008 -1069.406124 720.000000
971.868263 -1069.774701 720.000000
969.902519 -1070.143278 720.000000
967.936774 -1070.511855 720.000000
965.971030 -1070.880432 720.000000
964.005286 -1071.249009 720.000000
962.039541 -1071.617586 720.000000
960.000000 -1072.000000 720.000000
958.260145 -1072.642330 719.251458
956.520290 -1073.284661 718.502915
954.780434 -1073.926991 717.754373
953.040579 -1074.569321 717.005831
951.300724 -1075.211651 716.257288
949.560869 -1075.853982 715.508746
947.821014 -1076.496312 714.760203
946.081158 -1077.138642 714.011661
944.341303 -1077.780972 713.263119
942.601448 -1078.423303 712.514576
940.861593 -1079.065633 711.766034
939.121737 -1079.707963 711.017492
937.381882 -1080.350293 710.268949
935.642027 -1080.992624 709.520407
933.902172 -1081.634954 708.771865
932.162317 -1082.277284 708.023322
930.422461 -1082.919615 707.274780
928.682606 -1083.561945 706.526238
926.942751 -1084.204275 705.777695
925.202896 -1084.846605 705.029153
923.463041 -1085.488936 704.280610
921.723185 -1086.131266 703.532068
919.983330 -1086.773596 702.783526
918.243475 -1087.415926 702.034983
916.503620 -1088.058257 701.286441
914.763764 -1088.700587 700.537899
913.023909 -1089.342917 699.789356
911.284054 -1089.985247 699.040814
909.544199 -1090.627578 698.292272
907.804344 -1091.269908 697.543729
906.064488 -1091.912238 696.795187
904.324633 -1092.554569 696.046645
902.584778 -1093.196899 695.298102
900.844923 -1093.839229 694.549560
899.105068 -1094.481559 693.801017
897.365212 -1095.123890 693.052475
895.625357 -1095.766220 692.303933
893.885502 -1096.408550 691.555390
892.145647 -1097.050880 690.806848
890.405791 -1097.693211 690.058306
888.665936 -1098.335541 689.309763
886.926081 -1098.977871 688.561221
885.186226 -1099.620202 687.812679
883.446371 -1100.262532 687.064136
881.706515 -1100.904862 686.315594
879.966660 -1101.547192 685.567051
878.226805 -1102.189523 684.818509
876.486950 -1102.831853 684.069967
874.747095 -1103.474183 683.321424
873.007239 -1104.116513 682.572882
871.267384 -1104.758844 681.824340
869.527529 -1105.401174 681.075797
867.787674 -1106.043504 680.327255
866.047818 -1106.685834 679.578713
864.307963 -1107.328165 678.830170
862.568108 -1107.970495 678.081628
860.828253 -1108.612825 677.333086
859.088398 -1109.255156 676.584543
857.348542 -1109.897486 675.836001
855.608687 -1110.539816 675.087458
853.868832 -1111.182146 674.338916
852.128977 -1111.824477 673.590374
850.389122 -1112.466807 672.841831
848.649266 -1113.109137 672.093289
846.909411 -1113.751467 671.344747
845.169556 -1114.393798 670.596204
843.429701 -1115.036128 669.847662
841.689845 -1115.678458 669.099120
839.949990 -1116.320788 668.350577
838.210135 -1116.963119 667.602035
836.470280 -1117.605449 666.853492
834.730425 -1118.247779 666.104950
832.990569 -1118.890110 665.356408
831.250714 -1119.532440 664.607865
829.510859 -1120.174770 663.859323
827.771004 -1120.817100 663.110781
826.031149 -1121.459431 662.362238
824.291293 -1122.101761 661.613696
822.551438 -1122.744091 660.865154
820.811583 -1123.386421 660.116611
819.071728 -1124.028752 659.368069
817.331873 -1124.671082 658.619527
815.592017 -1125.313412 657.870984
813.852162 -1125.955742 657.122442
812.112307 -1126.598073 656.373899
810.372452 -1127.240403 655.625357
808.632596 -1127.882733 654.876815
806.892741 -1128.525064 654.128272
805.152886 -1129.167394 653.379730
803.413031 -1129.809724 652.631188
801.673176 -1130.452054 651.882645
799.933320 -1131.094385 651.134103
798.193465 -1131.736715 650.385561
796.453610 -1132.379045 649.637018
794.713755 -1133.021375 648.888476
792.973900 -1133.663706 648.139934
791.234044 -1134.306036 647.391391
789.494189 -1134.948366 646.642849
787.754334 -1135.590697 645.894306
786.014479 -1136.233027 645.145764
784.274623 -1136.875357 644.397222
782.534768 -1137.517687 643.648679
780.794913 -1138.160018 642.900137
779.055058 -1138.802348 642.151595
777.315203 -1139.444678 641.403052
775.575347 -1140.087008 640.654510
773.835492 -1140.729339 639.905968
772.095637 -1141.371669 639.157425
770.355782 -1142.013999 638.408883
768.615927 -1142.656329 637.660340
766.876071 -1143.298660 636.911798
765.136216 -1143.940990 636.163256
763.396361 -1144.583320 635.414713
761.656506 -1145.225651 634.666171
759.916650 -1145.867981 633.917629
758.176795 -1146.510311 633.169086
756.436940 -1147.152641 632.420544
754.697085 -1147.794972 631.672002
752.957230 -1148.437302 630.923459
751.217374 -1149.079632 630.174917
749.477519 -1149.721962 629.426375
747.737664 -1150.364293 628.677832
745.997809 -1151.006623 627.929290
744.257954 -1151.648953 627.180747
742.518098 -1152.291283 626.432205
740.778243 -1152.933614 625.683663
739.038388 -1153.575944 624.935120
737.298533 -1154.218274 624.186578
735.558677 -1154.860605 623.438036
733.818822 -1155.502935 622.689493
732.078967 -1156.145265 621.940951
730.339112 -1156.787595 621.192409
728.599257 -1157.429926 620.443866
726.859401 -1158.072256 619.695324
725.119546 -1158.714586 618.946782
723.379691 -1159.356916 618.198239
721.639836 -1159.999247 617.449697
719.899981 -1160.641577 616.701154
718.160125 -1161.283907 615.952612
716.420270 -1161.926237 615.204070
714.680415 -1162.568568 614.455527
712.940560 -1163.210898 613.706985
711.200704 -1163.853228 612.958443
709.460849 -1164.495559 612.209900
707.720994 -1165.137889 611.461358
705.981139 -1165.780219 610.712816
704.241284 -1166.422549 609.964273
702.501428 -1167.064880 609.215731
700.761573 -1167.707210 608.467188
699.021718 -1168.349540 607.718646
697.281863 -1168.991870 606.970104
695.542008 -1169.634201 606.221561
693.802152 -1170.276531 605.473019
692.062297 -1170.918861 604.724477
690.322442 -1171.561191 603.975934
688.582587 -1172.203522 603.227392
686.842731 -1172.845852 602.478850
685.102876 -1173.488182 601.730307
683.363021 -1174.130513 600.981765
681.623166 -1174.772843 600.233223
679.883311 -1175.415173 599.484680
678.143455 -1176.057503 598.736138
676.403600 -1176.699834 597.987595
674.663745 -1177.342164 597.239053
672.923890 -1177.984494 596.490511
671.184035 -1178.626824 595.741968
669.444179 -1179.269155 594.993426
667.704324 -1179.911485 594.244884
665.964469 -1180.553815 593.496341
664.224614 -1181.196146 592.747799
662.484759 -1181.838476 591.999257
660.744903 -1182.480806 591.250714
659.005048 -1183.123136 590.502172
657.265193 -1183.765467 589.753629
655.525338 -1184.407797 589.005087
653.785482 -1185.050127 588.256545
652.045627 -1185.692457 587.508002
650.305772 -1186.334788 586.759460
648.565917 -1186.977118 586.010918
646.826062 -1187.619448 585.262375
645.086206 -1188.261778 584.513833
643.346351 -1188.904109 583.765291
641.606496 -1189.546439 583.016748
639.866641 -1190.188769 582.268206
638.126786 -1190.831100 581.519664
636.386930 -1191.473430 580.771121
634.647075 -1192.115760 580.022579
632.907220 -1192.758090 579.274036
631.167365 -1193.400421 578.525494
629.427509 -1194.042751 577.776952
627.687654 -1194.685081 577.028409
625.947799 -1195.327411 576.279867
624.207944 -1195.969742 575.531325
622.468089 -1196.612072 574.782782
620.728233 -1197.254402 574.034240
618.988378 -1197.896732 573.285698
617.248523 -1198.539063 572.537155
615.508668 -1199.181393 571.788613
613.768813 -1199.823723 571.040071
612.028957 -1200.466054 570.291528
610.289102 -1201.108384 569.542986
608.549247 -1201.750714 568.794443
606.809392 -1202.393044 568.045901
605.069536 -1203.035375 567.297359
603.329681 -1203.677705 566.548816
601.589826 -1204.320035 565.800274
599.849971 -1204.962365 565.051732
598.110116 -1205.604696 564.303189
596.370260 -1206.247026 563.554647
594.630405 -1206.889356 562.806105
592.890550 -1207.531686 562.057562
591.150695 -1208.174017 561.309020
589.410840 -1208.816347 560.560477
587.670984 -1209.458677 559.811935
585.931129 -1210.101008 559.063393
584.191274 -1210.743338 558.314850
582.451419 -1211.385668 557.566308
580.711563 -1212.027998 556.817766
578.971708 -1212.670329 556.069223
577.231853 -1213.312659 555.320681
575.491998 -1213.954989 554.572139
573.752143 -1214.597319 553.823596
572.012287 -1215.239650 553.075054
570.272432 -1215.881980 552.326512
568.532577 -1216.524310 551.577969
566.792722 -1217.166641 550.829427
565.052867 -1217.808971 550.080884
563.313011 -1218.451301 549.332342
561.573156 -1219.093631 548.583800
559.833301 -1219.735962 547.835257
558.093446 -1220.378292 547.086715
556.353590 -1221.020622 546.338173
554.613735 -1221.662952 545.589630
552.873880 -1222.305283 544.841088
551.134025 -1222.947613 544.092546
549.394170 -1223.589943 543.344003
547.654314 -1224.232273 542.595461
545.914459 -1224.874604 541.846918
544.174604 -1225.516934 541.098376
542.434749 -1226.159264 540.349834
540.694894 -1226.801595 539.601291
538.955038 -1227.443925 538.852749
537.215183 -1228.086255 538.104207
535.475328 -1228.728585 537.355664
533.735473 -1229.370916 536.607122
531.995618 -1230.013246 535.858580
530.255762 -1230.655576 535.110037
528.515907 -1231.297906 534.361495
526.776052 -1231.940237 533.612953
525.036197 -1232.582567 532.864410
523.296341 -1233.224897 532.115868
521.556486 -1233.867227 531.367325
519.816631 -1234.509558 530.618783
518.076776 -1235.151888 529.870241
516.336921 -1235.794218 529.121698
514.597065 -1236.436549 528.373156
512.857210 -1237.078879 527.624614
511.117355 -1237.721209 526.876071
509.377500 -1238.363539 526.127529
507.637645 -1239.005870 525.378987
505.897789 -1239.648200 524.630444
504.157934 -1240.290530 523.881902
502.418079 -1240.932860 523.133360
500.678224 -1241.575191 522.384817
498.938368 -1242.217521 521.636275
497.198513 -1242.859851 520.887732
495.458658 -1243.502181 520.139190
493.718803 -1244.144512 519.390648
491.978948 -1244.786842 518.642105
490.239092 -1245.429172 517.893563
488.499237 -1246.071503 517.145021
486.759382 -1246.713833 516.396478
485.019527 -1247.356163 515.647936
483.279672 -1247.998493 514.899394
481.539816 -1248.640824 514.150851
479.799961 -1249.283154 513.402309
478.060106 -1249.925484 512.653766
476.320251 -1250.567814 511.905224
474.580395 -1251.210145 511.156682
472.840540 -1251.852475 510.408139
471.100685 -1252.494805 509.659597
469.360830 -1253.137136 508.911055
467.620975 -1253.779466 508.162512
465.881119 -1254.421796 507.413970
464.141264 -1255.064126 506.665428
462.401409 -1255.706457 505.916885
460.661554 -1256.348787 505.168343
458.921699 -1256.991117 504.419801
457.181843 -1257.633447 503.671258
455.441988 -1258.275778 502.922716
453.702133 -1258.918108 502.174173
451.962278 -1259.560438 501.425631
450.222422 -1260.202768 500.677089
448.482567 -1260.845099 499.928546
446.742712 -1261.487429 499.180004
445.002857 -1262.129759 498.431462
443.263002 -1262.772090 497.682919
441.523146 -1263.414420 496.934377
439.783291 -1264.056750 496.185835
438.043436 -1264.699080 495.437292
436.303581 -1265.341411 494.688750
434.563726 -1265.983741 493.940208
432.823870 -1266.626071 493.191665
431.084015 -1267.268401 492.443123
429.344160 -1267.910732 491.694580
427.604305 -1268.553062 490.946038
425.864449 -1269.195392 490.197496
424.124594 -1269.837722 489.448953
422.384739 -1270.480053 488.700411
420.644884 -1271.122383 487.951869
418.905029 -1271.764713 487.203326
417.165173 -1272.407044 486.454784
415.425318 -1273.049374 485.706242
413.685463 -1273.691704 484.957699
411.945608 -1274.334034 484.209157
410.205753 -1274.976365 483.460614
408.465897 -1275.618695 482.712072
406.726042 -1276.261025 481.963530
404.986187 -1276.903355 481.214987
403.246332 -1277.545686 480.466445
401.506477 -1278.188016 479.717903
399.766621 -1278.830346 478.969360
398.026766 -1279.472676 478.220818
396.286911 -1280.115007 477.472276
394.547056 -1280.757337 476.723733
392.807200 -1281.399667 475.975191
391.067345 -1282.041998 475.226649
389.327490 -1282.684328 474.478106
387.587635 -1283.326658 473.729564
385.847780 -1283.968988 472.981021
384.107924 -1284.611319 472.232479
382.368069 -1285.253649 471.483937
380.628214 -1285.895979 470.735394
378.888359 -1286.538309 469.986852
377.148504 -1287.180640 469.238310
375.408648 -1287.822970 468.489767
373.668793 -1288.465300 467.741225
371.928938 -1289.107630 466.992683
370.189083 -1289.749961 466.244140
368.449227 -1290.392291 465.495598
366.709372 -1291.034621 464.747055
364.969517 -1291.676952 463.998513
363.229662 -1292.319282 463.249971
361.489807 -1292.961612 462.501428
359.749951 -1293.603942 461.752886
358.010096 -1294.246273 461.004344
356.270241 -1294.888603 460.255801
354.530386 -1295.530933 459.507259
352.790531 -1296.173263 458.758717
351.050675 -1296.815594 458.010174
349.310820 -1297.457924 457.261632
347.570965 -1298.100254 456.513090
345.831110 -1298.742585 455.764547
344.091254 -1299.384915 455.016005
342.351399 -1300.027245 454.267462
340.611544 -1300.669575 453.518920
338.871689 -1301.311906 452.770378
337.131834 -1301.954236 452.021835
335.391978 -1302.596566 451.273293
333.652123 -1303.238896 450.524751
331.912268 -1303.881227 449.776208
330.172413 -1304.523557 449.027666
328.432558 -1305.165887 448.279124
326.692702 -1305.808217 447.530581
324.952847 -1306.450548 446.782039
323.212992 -1307.092878 446.033497
321.473137 -1307.735208 445.284954
319.733281 -1308.377539 444.536412
317.993426 -1309.019869 443.787869
316.253571 -1309.662199 443.039327
314.513716 -1310.304529 442.290785
312.773861 -1310.946860 441.542242
311.034005 -1311.589190 440.793700
309.294150 -1312.231520 440.045158
307.554295 -1312.873850 439.296615
305.814440 -1313.516181 438.548073
304.074585 -1314.158511 437.799531
302.334729 -1314.800841 437.050988
300.594874 -1315.443171 436.302446
298.855019 -1316.085502 435.553903
297.115164 -1316.727832 434.805361
295.375308 -1317.370162 434.056819
293.635453 -1318.012493 433.308276
291.895598 -1318.654823 432.559734
290.155743 -1319.297153 431.811192
288.415888 -1319.939483 431.062649
286.676032 -1320.581814 430.314107
284.936177 -1321.224144 429.565565
283.196322 -1321.866474 428.817022
281.456467 -1322.508804 428.068480
279.716612 -1323.151135 427.319938
277.976756 -1323.793465 426.571395
276.236901 -1324.435795 425.822853
274.497046 -1325.078125 425.074310
272.757191 -1325.720456 424.325768
271.017335 -1326.362786 423.577226
269.277480 -1327.005116 422.828683
267.537625 -1327.647447 422.080141
265.797770 -1328.289777 421.331599
264.057915 -1328.932107 420.583056
262.318059 -1329.574437 419.834514
260.578204 -1330.216768 419.085972
258.838349 -1330.859098 418.337429
257.098494 -1331.501428 417.588887
255.358639 -1332.143758 416.840345
253.618783 -1332.786089 416.091802
251.878928 -1333.428419 415.343260
250.139073 -1334.070749 414.594717
248.399218 -1334.713080 413.846175
246.659363 -1335.355410 413.097633
244.919507 -1335.997740 412.349090
243.179652 -1336.640070 411.600548
241.439797 -1337.282401 410.852006
239.699942 -1337.924731 410.103463
237.960086 -1338.567061 409.354921
236.220231 -1339.209391 408.606379
234.480376 -1339.851722 407.857836
232.740521 -1340.494052 407.109294
231.000666 -1341.136382 406.360751
229.260810 -1341.778712 405.612209
227.520955 -1342.421043 404.863667
225.781100 -1343.063373 404.115124
224.041245 -1343.705703 403.366582
222.301390 -1344.348034 402.618040
220.561534 -1344.990364 401.869497
218.821679 -1345.632694 401.120955
217.081824 -1346.275024 400.372413
215.341969 -1346.917355 399.623870
213.602113 -1347.559685 398.875328
211.862258 -1348.202015 398.126786
210.122403 -1348.844345 397.378243
208.382548 -1349.486676 396.629701
206.642693 -1350.129006 395.881158
204.902837 -1350.771336 395.132616
203.162982 -1351.413666 394.384074
201.423127 -1352.055997 393.635531
199.683272 -1352.698327 392.886989
197.943417 -1353.340657 392.138447
196.203561 -1353.982988 391.389904
194.463706 -1354.625318 390.641362
192.723851 -1355.267648 389.892820
190.983996 -1355.909978 389.144277
189.244140 -1356.552309 388.395735
187.504285 -1357.194639 387.647192
185.764430 -1357.836969 386.898650
184.024575 -1358.479299 386.150108
182.284720 -1359.121630 385.401565
180.544864 -1359.763960 384.653023
178.805009 -1360.406290 383.904481
177.065154 -1361.048620 383.155938
175.325299 -1361.690951 382.407396
173.585444 -1362.333281 381.658854
171.845588 -1362.975611 380.910311
170.105733 -1363.617942 380.161769
168.365878 -1364.260272 379.413227
166.626023 -1364.902602 378.664684
164.886167 -1365.544932 377.916142
163.146312 -1366.187263 377.167599
161.406457 -1366.829593 376.419057
159.666602 -1367.471923 375.670515
157.926747 -1368.114253 374.921972
156.186891 -1368.756584 374.173430
154.447036 -1369.398914 373.424888
152.707181 -1370.041244 372.676345
150.967326 -1370.683574 371.927803
149.227471 -1371.325905 371.179261
147.487615 -1371.968235 370.430718
145.747760 -1372.610565 369.682176
144.007905 -1373.252896 368.933634
142.268050 -1373.895226 368.185091
140.528194 -1374.537556 367.436549
138.788339 -1375.179886 366.688006
137.048484 -1375.822217 365.939464
135.308629 -1376.464547 365.190922
133.568774 -1377.106877 364.442379
131.828918 -1377.749207 363.693837
130.089063 -1378.391538 362.945295
128.349208 -1379.033868 362.196752
126.609353 -1379.676198 361.448210
124.869498 -1380.318529 360.699668
123.129642 -1380.960859 359.951125
121.389787 -1381.603189 359.202583
119.649932 -1382.245519 358.454040
117.910077 -1382.887850 357.705498
116.170222 -1383.530180 356.956956
114.430366 -1384.172510 356.208413
112.690511 -1384.814840 355.459871
110.950656 -1385.457171 354.711329
109.210801 -1386.099501 353.962786
107.470945 -1386.741831 353.214244
105.731090 -1387.384161 352.465702
103.991235 -1388.026492 351.717159
102.251380 -1388.668822 350.968617
100.511525 -1389.311152 350.220075
98.771669 -1389.953483 349.471532
97.031814 -1390.595813 348.722990
95.291959 -1391.238143 347.974447
93.552104 -1391.880473 347.225905
91.812249 -1392.522804 346.477363
90.072393 -1393.165134 345.728820
88.332538 -1393.807464 344.980278
86.592683 -1394.449794 344.231736
84.852828 -1395.092125 343.483193
83.112972 -1395.734455 342.734651
81.373117 -1396.376785 341.986109
79.633262 -1397.019115 341.237566
77.893407 -1397.661446 340.489024
76.153552 -1398.303776 339.740482
74.413696 -1398.946106 338.991939
72.673841 -1399.588437 338.243397
70.933986 -1400.230767 337.494854
69.194131 -1400.873097 336.746312
67.454276 -1401.515427 335.997770
65.714420 -1402.157758 335.249227
63.974565 -1402.800088 334.500685
62.234710 -1403.442418 333.752143
60.494855 -1404.084748 333.003600
58.754999 -1404.727079 332.255058
57.015144 -1405.369409 331.506516
55.275289 -1406.011739 330.757973
53.535434 -1406.654069 330.009431
51.795579 -1407.296400 329.260888
50.055723 -1407.938730 328.512346
48.315868 -1408.581060 327.763804
46.576013 -1409.223391 327.015261
44.836158 -1409.865721 326.266719
43.096303 -1410.508051 325.518177
41.356447 -1411.150381 324.769634
39.616592 -1411.792712 324.021092
37.876737 -1412.435042 323.272550
36.136882 -1413.077372 322.524007
34.397026 -1413.719702 321.775465
32.657171 -1414.362033 321.026923
30.917316 -1415.004363 320.278380
29.177461 -1415.646693 319.529838
27.437606 -1416.289024 318.781295
25.697750 -1416.931354 318.032753
23.957895 -1417.573684 317.284211
22.218040 -1418.216014 316.535668
20.478185 -1418.858345 315.787126
18.738330 -1419.500675 315.038584
16.998474 -1420.143005 314.290041
15.258619 -1420.785335 313.541499
13.518764 -1421.427666 312.792957
11.778909 -1422.069996 312.044414
10.039053 -1422.712326 311.295872
8.299198 -1423.354656 310.547329
6.559343 -1423.996987 309.798787
4.819488 -1424.639317 309.050245
3.079633 -1425.281647 308.301702
1.339777 -1425.923978 307.553160
-0.400078 -1426.566308 306.804618
-2.139933 -1427.208638 306.056075
-3.879788 -1427.850968 305.307533
-5.619643 -1428.493299 304.558991
-7.359499 -1429.135629 303.810448
-9.099354 -1429.777959 303.061906
-10.839209 -1430.420289 302.313364
-12.579064 -1431.062620 301.564821
-14.318919 -1431.704950 300.816279
-16.058775 -1432.347280 300.067736
-17.798630 -1432.989610 299.319194
-19.538485 -1433.631941 298.570652
-21.278340 -1434.274271 297.822109
-23.018196 -1434.916601 297.073567
-24.758051 -1435.558932 296.325025
-26.497906 -1436.201262 295.576482
-28.237761 -1436.843592 294.827940
-29.977616 -1437.485922 294.079398
-31.717472 -1438.128253 293.330855
-33.457327 -1438.770583 292.582313
-35.197182 -1439.412913 291.833771
-36.937037 -1440.055243 291.085228
-38.676892 -1440.697574 290.336686
-40.416748 -1441.339904 289.588143
-42.156603 -1441.982234 288.839601
-43.896458 -1442.624564 288.091059
-45.636313 -1443.266895 287.342516
-47.376169 -1443.909225 286.593974
-49.116024 -1444.551555 285.845432
-50.855879 -1445.193886 285.096889
-52.595734 -1445.836216 284.348347
-54.335589 -1446.478546 283.599805
-56.075445 -1447.120876 282.851262
-57.815300 -1447.763207 282.102720
-59.555155 -1448.405537 281.354177
-61.295010 -1449.047867 280.605635
-63.034865 -1449.690197 279.857093
-64.774721 -1450.332528 279.108550
-66.514576 -1450.974858 278.360008
-68.254431 -1451.617188 277.611466
-69.994286 -1452.259518 276.862923
-71.734142 -1452.901849 276.114381
-73.473997 -1453.544179 275.365839
-75.213852 -1454.186509 274.617296
-76.953707 -1454.828840 273.868754
-78.693562 -1455.471170 273.120212
-80.433418 -1456.113500 272.371669
-82.173273 -1456.755830 271.623127
-83.913128 -1457.398161 270.874584
-85.652983 -1458.040491 270.126042
-87.392838 -1458.682821 269.377500
-89.132694 -1459.325151 268.628957
-90.872549 -1459.967482 267.880415
-92.612404 -1460.609812 267.131873
-94.352259 -1461.252142 266.383330
-96.092115 -1461.894473 265.634788
-97.831970 -1462.536803 264.886246
-99.571825 -1463.179133 264.137703
-101.311680 -1463.821463 263.389161
-103.051535 -1464.463794 262.640618
-104.791391 -1465.106124 261.892076
-106.531246 -1465.748454 261.143534
-108.271101 -1466.390784 260.394991
-110.010956 -1467.033115 259.646449
-111.750811 -1467.675445 258.897907
-113.490667 -1468.317775 258.149364
-115.230522 -1468.960105 257.400822
-116.970377 -1469.602436 256.652280
-118.710232 -1470.244766 255.903737
-120.450088 -1470.887096 255.155195
-122.189943 -1471.529427 254.406653
-123.929798 -1472.171757 253.658110
-125.669653 -1472.814087 252.909568
-127.409508 -1473.456417 252.161025
-129.149364 -1474.098748 251.412483
-130.889219 -1474.741078 250.663941
-132.629074 -1475.383408 249.915398
-134.368929 -1476.025738 249.166856
-136.108784 -1476.668069 248.418314
-137.848640 -1477.310399 247.669771
-139.588495 -1477.952729 246.921229
-141.328350 -1478.595059 246.172687
-143.068205 -1479.237390 245.424144
-144.808061 -1479.879720 244.675602
-146.547916 -1480.522050 243.927060
-148.287771 -1481.164381 243.178517
-150.027626 -1481.806711 242.429975
-151.767481 -1482.449041 241.681432
-153.507337 -1483.091371 240.932890
-155.247192 -1483.733702 240.184348
-156.987047 -1484.376032 239.435805
-158.726902 -1485.018362 238.687263
-160.466757 -1485.660692 237.938721
-162.206613 -1486.303023 237.190178
-163.946468 -1486.945353 236.441636
-165.686323 -1487.587683 235.693094
-167.426178 -1488.230013 234.944551
-169.166033 -1488.872344 234.196009
-170.905889 -1489.514674 233.447466
-172.645744 -1490.157004 232.698924
-174.385599 -1490.799335 231.950382
-176.125454 -1491.441665 231.201839
-177.865310 -1492.083995 230.453297
-179.605165 -1492.726325 229.704755
-181.345020 -1493.368656 228.956212
-183.084875 -1494.010986 228.207670
-184.824730 -1494.653316 227.459128
-186.564586 -1495.295646 226.710585
-188.304441 -1495.937977 225.962043
-190.044296 -1496.580307 225.213501
-191.784151 -1497.222637 224.464958
-193.524006 -1497.864968 223.716416
-195.263862 -1498.507298 222.967873
-197.003717 -1499.149628 222.219331
-198.743572 -1499.791958 221.470789
-200.483427 -1500.434289 220.722246
-202.223283 -1501.076619 219.973704
-203.963138 -1501.718949 219.225162
-205.702993 -1502.361279 218.476619
-207.442848 -1503.003610 217.728077
-209.182703 -1503.645940 216.979535
-210.922559 -1504.288270 216.230992
-212.662414 -1504.930600 215.482450
-214.402269 -1505.572931 214.733908
-216.142124 -1506.215261 213.985365
-217.881979 -1506.857591 213.236823
-219.621835 -1507.499922 212.488280
-221.361690 -1508.142252 211.739738
-223.101545 -1508.784582 210.991196
-224.841400 -1509.426912 210.242653
-226.581256 -1510.069243 209.494111
-228.321111 -1510.711573 208.745569
-230.060966 -1511.353903 207.997026
-231.800821 -1511.996233 207.248484
-233.540676 -1512.638564 206.499942
-235.280532 -1513.280894 205.751399
-237.020387 -1513.923224 205.002857
-238.760242 -1514.565554 204.254314
-240.500097 -1515.207885 203.505772
-242.239952 -1515.850215 202.757230
-243.979808 -1516.492545 202.008687
-245.719663 -1517.134876 201.260145
-247.459518 -1517.777206 200.511603
-249.199373 -1518.419536 199.763060
-250.939229 -1519.061866 199.014518
-252.679084 -1519.704197 198.265976
-254.418939 -1520.346527 197.517433
-256.158794 -1520.988857 196.768891
-257.898649 -1521.631187 196.020349
-259.638505 -1522.273518 195.271806
-261.378360 -1522.915848 194.523264
-263.118215 -1523.558178 193.774721
-264.858070 -1524.200508 193.026179
-266.597925 -1524.842839 192.277637
-268.337781 -1525.485169 191.529094
-270.077636 -1526.127499 190.780552
-271.817491 -1526.769830 190.032010
-273.557346 -1527.412160 189.283467
-275.297202 -1528.054490 188.534925
-277.037057 -1528.696820 187.786383
-278.776912 -1529.339151 187.037840
-280.516767 -1529.981481 186.289298
-282.256622 -1530.623811 185.540755
-283.996478 -1531.266141 184.792213
-285.736333 -1531.908472 184.043671
-287.476188 -1532.550802 183.295128
-289.216043 -1533.193132 182.546586
-290.955898 -1533.835463 181.798044
-292.695754 -1534.477793 181.049501
-294.435609 -1535.120123 180.300959
-296.175464 -1535.762453 179.552417
-297.915319 -1536.404784 178.803874
-299.655174 -1537.047114 178.055332
-301.395030 -1537.689444 177.306790
-303.134885 -1538.331774 176.558247
-304.874740 -1538.974105 175.809705
-306.614595 -1539.616435 175.061162
-308.354451 -1540.258765 174.312620
-310.094306 -1540.901095 173.564078
-311.834161 -1541.543426 172.815535
-313.574016 -1542.185756 172.066993
-315.313871 -1542.828086 171.318451
-317.053727 -1543.470417 170.569908
-318.793582 -1544.112747 169.821366
-320.533437 -1544.755077 169.072824
-322.273292 -1545.397407 168.324281
-324.013147 -1546.039738 167.575739
-325.753003 -1546.682068 166.827197
-327.492858 -1547.324398 166.078654
-329.232713 -1547.966728 165.330112
-330.972568 -1548.609059 164.581569
-332.712424 -1549.251389 163.833027
-334.452279 -1549.893719 163.084485
-336.192134 -1550.536049 162.335942
-337.931989 -1551.178380 161.587400
-339.671844 -1551.820710 160.838858
-341.411700 -1552.463040 160.090315
-343.151555 -1553.105371 159.341773
-344.891410 -1553.747701 158.593231
-346.631265 -1554.390031 157.844688
-348.371120 -1555.032361 157.096146
-350.110976 -1555.674692 156.347603
-351.850831 -1556.317022 155.599061
-353.590686 -1556.959352 154.850519
-355.330541 -1557.601682 154.101976
-357.070397 -1558.244013 153.353434
-358.810252 -1558.886343 152.604892
-360.550107 -1559.528673 151.856349
-362.289962 -1560.171003 151.107807
-364.029817 -1560.813334 150.359265
-365.769673 -1561.455664 149.610722
-367.509528 -1562.097994 148.862180
-369.249383 -1562.740325 148.113638
-370.989238 -1563.382655 147.365095
-372.729093 -1564.024985 146.616553
-374.468949 -1564.667315 145.868010
-376.208804 -1565.309646 145.119468
-377.948659 -1565.951976 144.370926
-379.688514 -1566.594306 143.622383
-381.428370 -1567.236636 142.873841
-383.168225 -1567.878967 142.125299
-384.908080 -1568.521297 141.376756
-386.647935 -1569.163627 140.628214
-388.387790 -1569.805957 139.879672
-390.127646 -1570.448288 139.131129
-391.867501 -1571.090618 138.382587
-393.607356 -1571.732948 137.634045
-395.347211 -1572.375279 136.885502
-397.087066 -1573.017609 136.136960
-398.826922 -1573.659939 135.388417
-400.566777 -1574.302269 134.639875
-402.306632 -1574.944600 133.891333
-404.046487 -1575.586930 133.142790
-405.786343 -1576.229260 132.394248
-407.526198 -1576.871590 131.645706
-409.266053 -1577.513921 130.897163
-411.005908 -1578.156251 130.148621
-412.745763 -1578.798581 129.400079
-414.485619 -1579.440912 128.651536
-416.225474 -1580.083242 127.902994
-417.965329 -1580.725572 127.154451
-419.705184 -1581.367902 126.405909
-421.445039 -1582.010233 125.657367
-423.184895 -1582.652563 124.908824
-424.924750 -1583.294893 124.160282
-426.664605 -1583.937223 123.411740
-428.404460 -1584.579554 122.663197
-430.144315 -1585.221884 121.914655
-431.884171 -1585.864214 121.166113
-433.624026 -1586.506544 120.417570
-435.363881 -1587.148875 119.669028
-437.103736 -1587.791205 118.920486
-438.843592 -1588.433535 118.171943
-440.583447 -1589.075866 117.423401
-442.323302 -1589.718196 116.674858
-444.063157 -1590.360526 115.926316
-445.803012 -1591.002856 115.177774
-447.542868 -1591.645187 114.429231
-449.282723 -1592.287517 113.680689
-451.022578 -1592.929847 112.932147
-452.762433 -1593.572177 112.183604
-454.502288 -1594.214508 111.435062
-456.242144 -1594.856838 110.686520
-457.981999 -1595.499168 109.937977
-459.721854 -1596.141498 109.189435
-461.461709 -1596.783829 108.440892
-463.201565 -1597.426159 107.692350
-464.941420 -1598.068489 106.943808
-466.681275 -1598.710820 106.195265
-468.421130 -1599.353150 105.446723
-470.160985 -1599.995480 104.698181
-471.900841 -1600.637810 103.949638
-473.640696 -1601.280141 103.201096
-475.380551 -1601.922471 102.452554
-477.120406 -1602.564801 101.704011
-478.860261 -1603.207131 100.955469
-480.600117 -1603.849462 100.206927
-482.339972 -1604.491792 99.458384
-484.079827 -1605.134122 98.709842
-485.819682 -1605.776452 97.961299
-487.559538 -1606.418783 97.212757
-489.299393 -1607.061113 96.464215
-491.039248 -1607.703443 95.715672
-492.779103 -1608.345774 94.967130
-494.518958 -1608.988104 94.218588
-496.258814 -1609.630434 93.470045
-497.998669 -1610.272764 92.721503
-499.738524 -1610.915095 91.972961
-501.478379 -1611.557425 91.224418
-503.218234 -1612.199755 90.475876
-504.958090 -1612.842085 89.727334
-506.697945 -1613.484416 88.978791
-508.437800 -1614.126746 88.230249
-510.177655 -1614.769076 87.481706
-511.917511 -1615.411407 86.733164
-513.657366 -1616.053737 85.984622
-515.397221 -1616.696067 85.236079
-517.137076 -1617.338397 84.487537
-518.876931 -1617.980728 83.738995
-520.616787 -1618.623058 82.990452
-522.356642 -1619.265388 82.241910
-524.096497 -1619.907718 81.493368
-525.836352 -1620.550049 80.744825
-527.576207 -1621.192379 79.996283
-529.316063 -1621.834709 79.247740
-531.055918 -1622.477039 78.499198
-532.795773 -1623.119370 77.750656
-534.535628 -1623.761700 77.002113
-536.275484 -1624.404030 76.253571
-538.015339 -1625.046361 75.505029
-539.755194 -1625.688691 74.756486
-541.495049 -1626.331021 74.007944
-543.234904 -1626.973351 73.259402
-544.974760 -1627.615682 72.510859
-546.714615 -1628.258012 71.762317
-548.454470 -1628.900342 71.013775
-550.194325 -1629.542672 70.265232
-551.934180 -1630.185003 69.516690
-553.674036 -1630.827333 68.768147
-555.413891 -1631.469663 68.019605
-557.153746 -1632.111993 67.271063
-558.893601 -1632.754324 66.522520
-560.633457 -1633.396654 65.773978
-562.373312 -1634.038984 65.025436
-564.113167 -1634.681315 64.276893
-565.853022 -1635.323645 63.528351
-567.592877 -1635.965975 62.779809
-569.332733 -1636.608305 62.031266
-571.072588 -1637.250636 61.282724
-572.812443 -1637.892966 60.534182
-574.552298 -1638.535296 59.785639
-576.292153 -1639.177626 59.037097
-578.032009 -1639.819957 58.288554
-579.771864 -1640.462287 57.540012
-581.511719 -1641.104617 56.791470
-583.251574 -1641.746947 56.042927
-584.991429 -1642.389278 55.294385
-586.731285 -1643.031608 54.545843
-588.471140 -1643.673938 53.797300
-590.210995 -1644.316269 53.048758
-591.950850 -1644.958599 52.300216
-593.690706 -1645.600929 51.551673
-595.430561 -1646.243259 50.803131
-597.170416 -1646.885590 50.054588
-598.910271 -1647.527920 49.306046
-600.650126 -1648.170250 48.557504
-602.389982 -1648.812580 47.808961
-604.129837 -1649.454911 47.060419
-605.869692 -1650.097241 46.311877
-607.609547 -1650.739571 45.563334
-609.349402 -1651.381901 44.814792
-611.089258 -1652.024232 44.066250
-612.829113 -1652.666562 43.317707
-614.568968 -1653.308892 42.569165
-616.308823 -1653.951223 41.820623
-618.048679 -1654.593553 41.072080
-619.788534 -1655.235883 40.323538
-621.528389 -1655.878213 39.574995
-623.268244 -1656.520544 38.826453
-625.008099 -1657.162874 38.077911
-626.747955 -1657.805204 37.329368
-628.487810 -1658.447534 36.580826
-630.227665 -1659.089865 35.832284
-631.967520 -1659.732195 35.083741
-633.707375 -1660.374525 34.335199
-635.447231 -1661.016856 33.586657
-637.187086 -1661.659186 32.838114
-638.926941 -1662.301516 32.089572
-640.666796 -1662.943846 31.341029
-642.406652 -1663.586177 30.592487
-644.146507 -1664.228507 29.843945
-645.886362 -1664.870837 29.095402
-647.626217 -1665.513167 28.346860
-649.366072 -1666.155498 27.598318
-651.105928 -1666.797828 26.849775
-652.845783 -1667.440158 26.101233
-654.585638 -1668.082488 25.352691
-656.325493 -1668.724819 24.604148
-658.065348 -1669.367149 23.855606
-659.805204 -1670.009479 23.107064
-661.545059 -1670.651810 22.358521
-663.284914 -1671.294140 21.609979
-665.024769 -1671.936470 20.861436
-666.764625 -1672.578800 20.112894
-668.504480 -1673.221131 19.364352
-670.244335 -1673.863461 18.615809
-671.984190 -1674.505791 17.867267
-673.724045 -1675.148121 17.118725
-675.463901 -1675.790452 16.370182
-677.203756 -1676.432782 15.621640
-678.943611 -1677.075112 14.873098
-680.683466 -1677.717442 14.124555
-682.423321 -1678.359773 13.376013
-684.163177 -1679.002103 12.627471
-685.903032 -1679.644433 11.878928
-687.642887 -1680.286764 11.130386
-689.382742 -1680.929094 10.381843
-691.122598 -1681.571424 9.633301
-692.862453 -1682.213754 8.884759
-694.602308 -1682.856085 8.136216
-696.342163 -1683.498415 7.387674
-698.082018 -1684.140745 6.639132
-699.821874 -1684.783075 5.890589
-701.561729 -1685.425406 5.142047
-703.301584 -1686.067736 4.393505
-705.041439 -1686.710066 3.644962
-706.781294 -1687.352396 2.896420
-708.521150 -1687.994727 2.147877
-710.261005 -1688.637057 1.399335
-712.000860 -1689.279387 0.650793
-713.740715 -1689.921718 -0.097750
-715.480570 -1690.564048 -0.846292
-717.220426 -1691.206378 -1.594834
-718.960281 -1691.848708 -2.343377
-720.700136 -1692.491039 -3.091919
-722.439991 -1693.133369 -3.840461
-724.179847 -1693.775699 -4.589004
-725.919702 -1694.418029 -5.337546
-727.659557 -1695.060360 -6.086088
-729.399412 -1695.702690 -6.834631
-731.139267 -1696.345020 -7.583173
-732.879123 -1696.987351 -8.331716
-734.618978 -1697.629681 -9.080258
-736.358833 -1698.272011 -9.828800
-738.098688 -1698.914341 -10.577343
-739.838543 -1699.556672 -11.325885
-741.578399 -1700.199002 -12.074427
-743.318254 -1700.841332 -12.822970
-745.058109 -1701.483662 -13.571512
-746.797964 -1702.125993 -14.320054
-748.537820 -1702.768323 -15.068597
-750.277675 -1703.410653 -15.817139
-752.017530 -1704.052983 -16.565682
-753.757385 -1704.695314 -17.314224
-755.497240 -1705.337644 -18.062766
-757.237096 -1705.979974 -18.811309
-758.976951 -1706.622305 -19.559851
-760.716806 -1707.264635 -20.308393
-762.456661 -1707.906965 -21.056936
-764.196516 -1708.549295 -21.805478
-765.936372 -1709.191626 -22.554020
-767.676227 -1709.833956 -23.302563
-769.416082 -1710.476286 -24.051105
-771.155937 -1711.118616 -24.799647
-772.895793 -1711.760947 -25.548190
-774.635648 -1712.403277 -26.296732
-776.375503 -1713.045607 -27.045275
-778.115358 -1713.687937 -27.793817
-779.855213 -1714.330268 -28.542359
-781.595069 -1714.972598 -29.290902
-783.334924 -1715.614928 -30.039444
-785.074779 -1716.257259 -30.787986
-786.814634 -1716.899589 -31.536529
-788.554489 -1717.541919 -32.285071
-790.294345 -1718.184249 -33.033613
-792.034200 -1718.826580 -33.782156
-793.774055 -1719.468910 -34.530698
-795.513910 -1720.111240 -35.279240
-797.253766 -1720.753570 -36.027783
-798.993621 -1721.395901 -36.776325
-800.733476 -1722.038231 -37.524868
-802.473331 -1722.680561 -38.273410
-804.213186 -1723.322891 -39.021952
-805.953042 -1723.965222 -39.770495
-807.692897 -1724.607552 -40.519037
-809.432752 -1725.249882 -41.267579
-811.172607 -1725.892213 -42.016122
-812.912462 -1726.534543 -42.764664
-814.652318 -1727.176873 -43.513206
-816.392173 -1727.819203 -44.261749
-818.132028 -1728.461534 -45.010291
-819.871883 -1729.103864 -45.758834
-821.611739 -1729.746194 -46.507376
-823.351594 -1730.388524 -47.255918
-825.091449 -1731.030855 -48.004461
-826.831304 -1731.673185 -48.753003
-828.571159 -1732.315515 -49.501545
-830.311015 -1732.957845 -50.250088
-832.050870 -1733.600176 -50.998630
-833.790725 -1734.242506 -51.747172
-835.530580 -1734.884836 -52.495715
-837.270435 -1735.527167 -53.244257
-839.010291 -1736.169497 -53.992799
-840.750146 -1736.811827 -54.741342
-842.490001 -1737.454157 -55.489884
-844.229856 -1738.096488 -56.238427
-845.969711 -1738.738818 -56.986969
-847.709567 -1739.381148 -57.735511
-849.449422 -1740.023478 -58.484054
-851.189277 -1740.665809 -59.232596
-852.929132 -1741.308139 -59.981138
-854.668988 -1741.950469 -60.729681
-856.408843 -1742.592800 -61.478223
-858.148698 -1743.235130 -62.226765
-859.888553 -1743.877460 -62.975308
-861.628408 -1744.519790 -63.723850
-863.368264 -1745.162121 -64.472392
-865.108119 -1745.804451 -65.220935
-866.847974 -1746.446781 -65.969477
-868.587829 -1747.089111 -66.718020
-870.327684 -1747.731442 -67.466562
-872.067540 -1748.373772 -68.215104
-873.807395 -1749.016102 -68.963647
-875.547250 -1749.658432 -69.712189
-877.287105 -1750.300763 -70.460731
-879.026961 -1750.943093 -71.209274
-880.766816 -1751.585423 -71.957816
-882.506671 -1752.227754 -72.706358
-884.246526 -1752.870084 -73.454901
-885.986381 -1753.512414 -74.203443
-887.726237 -1754.154744 -74.951986
-889.466092 -1754.797075 -75.700528
-891.205947 -1755.439405 -76.449070
-892.945802 -1756.081735 -77.197613
-894.685657 -1756.724065 -77.946155
-896.425513 -1757.366396 -78.694697
-898.165368 -1758.008726 -79.443240
-899.905223 -1758.651056 -80.191782
-901.645078 -1759.293386 -80.940324
-903.384934 -1759.935717 -81.688867
-905.124789 -1760.578047 -82.437409
-906.864644 -1761.220377 -83.185951
-908.604499 -1761.862708 -83.934494
-910.344354 -1762.505038 -84.683036
-912.084210 -1763.147368 -85.431579
-913.824065 -1763.789698 -86.180121
-915.563920 -1764.432029 -86.928663
-917.303775 -1765.074359 -87.677206
-919.043630 -1765.716689 -88.425748
-920.783486 -1766.359019 -89.174290
-922.523341 -1767.001350 -89.922833
-924.263196 -1767.643680 -90.671375
-926.003051 -1768.286010 -91.419917
-927.742907 -1768.928340 -92.168460
-929.482762 -1769.570671 -92.917002
-931.222617 -1770.213001 -93.665545
-932.962472 -1770.855331 -94.414087
-934.702327 -1771.497662 -95.162629
-936.442183 -1772.139992 -95.911172
-938.182038 -1772.782322 -96.659714
-939.921893 -1773.424652 -97.408256
-941.661748 -1774.066983 -98.156799
-943.401603 -1774.709313 -98.905341
-945.141459 -1775.351643 -99.653883
-946.881314 -1775.993973 -100.402426
-948.621169 -1776.636304 -101.150968
-950.361024 -1777.278634 -101.899510
-952.100880 -1777.920964 -102.648053
-953.840735 -1778.563295 -103.396595
-955.580590 -1779.205625 -104.145138
-957.320445 -1779.847955 -104.893680
-959.060300 -1780.490285 -105.642222
-960.800156 -1781.132616 -106.390765
-962.540011 -1781.774946 -107.139307
-964.279866 -1782.417276 -107.887849
-966.019721 -1783.059606 -108.636392
-967.759576 -1783.701937 -109.384934
-969.499432 -1784.344267 -110.133476
-971.239287 -1784.986597 -110.882019
-972.979142 -1785.628927 -111.630561
-974.718997 -1786.271258 -112.379103
-976.458853 -1786.913588 -113.127646
-978.198708 -1787.555918 -113.876188
-979.938563 -1788.198249 -114.624731
-981.678418 -1788.840579 -115.373273
-983.418273 -1789.482909 -116.121815
-985.158129 -1790.125239 -116.870358
-986.897984 -1790.767570 -117.618900
-988.637839 -1791.409900 -118.367442
-990.377694 -1792.052230 -119.115985
-992.117549 -1792.694560 -119.864527
-993.857405 -1793.336891 -120.613069
-995.597260 -1793.979221 -121.361612
-997.337115 -1794.621551 -122.110154
-999.076970 -1795.263881 -122.858697
-1000.816825 -1795.906212 -123.607239
-1002.556681 -1796.548542 -124.355781
-1004.296536 -1797.190872 -125.104324
-1006.036391 -1797.833203 -125.852866
-1007.776246 -1798.475533 -126.601408
-1009.516102 -1799.117863 -127.349951
-1011.255957 -1799.760193 -128.098493
-1012.995812 -1800.402524 -128.847035
-1014.735667 -1801.044854 -129.595578
-1016.475522 -1801.687184 -130.344120
-1018.215378 -1802.329514 -131.092662
-1019.955233 -1802.971845 -131.841205
-1021.695088 -1803.614175 -132.589747
-1023.434943 -1804.256505 -133.338290
-1025.174798 -1804.898835 -134.086832
-1026.914654 -1805.541166 -134.835374
-1028.654509 -1806.183496 -135.583917
-1030.394364 -1806.825826 -136.332459
-1032.134219 -1807.468157 -137.081001
-1033.874075 -1808.110487 -137.829544
-1035.613930 -1808.752817 -138.578086
-1037.353785 -1809.395147 -139.326628
-1039.093640 -1810.037478 -140.075171
-1040.833495 -1810.679808 -140.823713
-1042.573351 -1811.322138 -141.572255
-1044.313206 -1811.964468 -142.320798
-1046.053061 -1812.606799 -143.069340
-1047.792916 -1813.249129 -143.817883
-1049.532771 -1813.891459 -144.566425
-1051.272627 -1814.533790 -145.314967
-1053.012482 -1815.176120 -146.063510
-1054.752337 -1815.818450 -146.812052
-1056.492192 -1816.460780 -147.560594
-1058.232048 -1817.103111 -148.309137
-1059.971903 -1817.745441 -149.057679
-1061.711758 -1818.387771 -149.806221
-1063.451613 -1819.030101 -150.554764
-1065.191468 -1819.672432 -151.303306
-1066.931324 -1820.314762 -152.051849
-1068.671179 -1820.957092 -152.800391
-1070.411034 -1821.599422 -153.548933
-1072.150889 -1822.241753 -154.297476
-1073.890744 -1822.884083 -155.046018
-1075.630600 -1823.526413 -155.794560
-1077.370455 -1824.168744 -156.543103
-1079.110310 -1824.811074 -157.291645
-1080.850165 -1825.453404 -158.040187
-1082.590021 -1826.095734 -158.788730
-1084.329876 -1826.738065 -159.537272
-1086.069731 -1827.380395 -160.285814
-1087.809586 -1828.022725 -161.034357
-1089.549441 -1828.665055 -161.782899
-1091.289297 -1829.307386 -162.531442
-1093.029152 -1829.949716 -163.279984
-1094.769007 -1830.592046 -164.028526
-1096.508862 -1831.234376 -164.777069
-1098.248717 -1831.876707 -165.525611
-1099.988573 -1832.519037 -166.274153
-1101.728428 -1833.161367 -167.022696
-1103.468283 -1833.803698 -167.771238
-1105.208138 -1834.446028 -168.519780
-1106.947994 -1835.088358 -169.268323
-1108.687849 -1835.730688 -170.016865
-1110.427704 -1836.373019 -170.765408
-1112.167559 -1837.015349 -171.513950
-1113.907414 -1837.657679 -172.262492
-1115.647270 -1838.300009 -173.011035
-1117.387125 -1838.942340 -173.759577
-1119.126980 -1839.584670 -174.508119
-1120.866835 -1840.227000 -175.256662
-1122.606690 -1840.869330 -176.005204
-1124.346546 -1841.511661 -176.753746
-1126.086401 -1842.153991 -177.502289
-1127.826256 -1842.796321 -178.250831
-1129.566111 -1843.438652 -178.999373
-1131.305966 -1844.080982 -179.747916
-1133.045822 -1844.723312 -180.496458
-1134.785677 -1845.365642 -181.245001
-1136.525532 -1846.007973 -181.993543
-1138.265387 -1846.650303 -182.742085
-1140.005243 -1847.292633 -183.490628
-1141.745098 -1847.934963 -184.239170
-1143.484953 -1848.577294 -184.987712
-1145.224808 -1849.219624 -185.736255
-1146.964663 -1849.861954 -186.484797
-1148.704519 -1850.504284 -187.233339
-1150.444374 -1851.146615 -187.981882
-1152.184229 -1851.788945 -188.730424
-1153.924084 -1852.431275 -189.478966
-1155.663939 -1853.073606 -190.227509
-1157.403795 -1853.715936 -190.976051
-1159.143650 -1854.358266 -191.724594
-1160.883505 -1855.000596 -192.473136
-1162.623360 -1855.642927 -193.221678
-1164.363216 -1856.285257 -193.970221
-1166.103071 -1856.927587 -194.718763
-1167.842926 -1857.569917 -195.467305
-1169.582781 -1858.212248 -196.215848
-1171.322636 -1858.854578 -196.964390
-1173.062492 -1859.496908 -197.712932
-1174.802347 -1860.139239 -198.461475
-1176.542202 -1860.781569 -199.210017
-1178.282057 -1861.423899 -199.958560
-1180.021912 -1862.066229 -200.707102
-1181.761768 -1862.708560 -201.455644
-1183.501623 -1863.350890 -202.204187
-1185.241478 -1863.993220 -202.952729
-1186.981333 -1864.635550 -203.701271
-1188.721189 -1865.277881 -204.449814
-1190.461044 -1865.920211 -205.198356
-1192.200899 -1866.562541 -205.946898
-1193.940754 -1867.204871 -206.695441
-1195.680609 -1867.847202 -207.443983
-1197.420465 -1868.489532 -208.192525
-1199.160320 -1869.131862 -208.941068
-1200.900175 -1869.774193 -209.689610
-1202.640030 -1870.416523 -210.438153
-1204.379885 -1871.058853 -211.186695
-1206.119741 -1871.701183 -211.935237
-1207.859596 -1872.343514 -212.683780
-1209.599451 -1872.985844 -213.432322
-1211.339306 -1873.628174 -214.180864
-1213.079162 -1874.270504 -214.929407
-1214.819017 -1874.912835 -215.677949
-1216.558872 -1875.555165 -216.426491
-1218.298727 -1876.197495 -217.175034
-1220.038582 -1876.839825 -217.923576
-1221.778438 -1877.482156 -218.672118
-1223.518293 -1878.124486 -219.420661
-1225.258148 -1878.766816 -220.169203
-1226.998003 -1879.409147 -220.917746
-1228.737858 -1880.051477 -221.666288
-1230.477714 -1880.693807 -222.414830
-1232.217569 -1881.336137 -223.163373
-1233.957424 -1881.978468 -223.911915
-1235.697279 -1882.620798 -224.660457
-1237.437135 -1883.263128 -225.409000
-1239.176990 -1883.905458 -226.157542
-1240.916845 -1884.547789 -226.906084
-1242.656700 -1885.190119 -227.654627
-1244.396555 -1885.832449 -228.403169
-1246.136411 -1886.474779 -229.151712
-1247.876266 -1887.117110 -229.900254
-1249.616121 -1887.759440 -230.648796
-1251.355976 -1888.401770 -231.397339
-1253.095831 -1889.044101 -232.145881
-1254.835687 -1889.686431 -232.894423
-1256.575542 -1890.328761 -233.642966
-1258.315397 -1890.971091 -234.391508
-1260.055252 -1891.613422 -235.140050
-1261.795107 -1892.255752 -235.888593
-1263.534963 -1892.898082 -236.637135
-1265.274818 -1893.540412 -237.385677
-1267.014673 -1894.182743 -238.134220
-1268.754528 -1894.825073 -238.882762
-1270.494384 -1895.467403 -239.631305
-1272.234239 -1896.109734 -240.379847
-1273.974094 -1896.752064 -241.128389
-1275.713949 -1897.394394 -241.876932
-1277.453804 -1898.036724 -242.625474
-1279.193660 -1898.679055 -243.374016
-1280.933515 -1899.321385 -244.122559
-1282.673370 -1899.963715 -244.871101
-1284.413225 -1900.606045 -245.619643
-1286.153080 -1901.248376 -246.368186
-1287.892936 -1901.890706 -247.116728
-1289.632791 -1902.533036 -247.865271
-1291.372646 -1903.175366 -248.613813
-1293.112501 -1903.817697 -249.362355
-1294.852357 -1904.460027 -250.110898
-1296.592212 -1905.102357 -250.859440
-1298.332067 -1905.744688 -251.607982
-1300.071922 -1906.387018 -252.356525
-1301.811777 -1907.029348 -253.105067
-1303.551633 -1907.671678 -253.853609
-1305.291488 -1908.314009 -254.602152
-1307.031343 -1908.956339 -255.350694
-1308.771198 -1909.598669 -256.099236
-1310.511053 -1910.240999 -256.847779
-1312.250909 -1910.883330 -257.596321
-1313.990764 -1911.525660 -258.344864
-1315.730619 -1912.167990 -259.093406
-1317.470474 -1912.810320 -259.841948
-1319.210330 -1913.452651 -260.590491
-1320.950185 -1914.094981 -261.339033
-1322.690040 -1914.737311 -262.087575
-1324.429895 -1915.379642 -262.836118
-1326.169750 -1916.021972 -263.584660
-1327.909606 -1916.664302 -264.333202
