2596.745425 -15656.443806 -438.761423
2596.590357 -15658.259233 -439.586152
2596.435289 -15660.074660 -440.410881
2596.280222 -15661.890087 -441.235610
2596.125154 -15663.705515 -442.060339
2595.970086 -15665.520942 -442.885068
2595.815018 -15667.336369 -443.709796
2595.659951 -15669.151797 -444.534525
2595.504883 -15670.967224 -445.359254
2595.349815 -15672.782651 -446.183983
2595.194747 -15674.598078 -447.008712
2595.039680 -15676.413506 -447.833441
2594.884612 -15678.228933 -448.658170
2594.729544 -15680.044360 -449.482899
2594.574476 -15681.859787 -450.307628
2594.419409 -15683.675215 -451.132357
2594.264341 -15685.490642 -451.957086
2594.109273 -15687.306069 -452.781815
2593.954206 -15689.121497 -453.606544
2593.799138 -15690.936924 -454.431273
2593.644070 -15692.752351 -455.256002
2593.489002 -15694.567778 -456.080731
2593.333935 -15696.383206 -456.905460
2593.178867 -15698.198633 -457.730188
2593.023799 -15700.014060 -458.554917
2592.868731 -15701.829487 -459.379646
2592.713664 -15703.644915 -460.204375
2592.558596 -15705.460342 -461.029104
2592.403528 -15707.275769 -461.853833
2592.248460 -15709.091196 -462.678562
2592.000000 -15712.000000 -464.000000
2593.958812 -15712.341444 -464.215574
2595.917624 -15712.682889 -464.431147
2597.876436 -15713.024333 -464.646721
2599.835247 -15713.365777 -464.862294
2601.794059 -15713.707221 -465.077868
2603.752871 -15714.048666 -465.293441
2605.711683 -15714.390110 -465.509015
2607.670495 -15714.731554 -465.724588
2609.629307 -15715.072998 -465.940162
2611.588118 -15715.414443 -466.155735
2613.546930 -15715.755887 -466.371309
2615.505742 -15716.097331 -466.586882
2617.464554 -15716.438775 -466.802456
2619.423366 -15716.780220 -467.018029
2621.382178 -15717.121664 -467.233603
2623.340990 -15717.463108 -467.449177
2625.299801 -15717.804553 -467.664750
2627.258613 -15718.145997 -467.880324
2629.217425 -15718.487441 -468.095897
2631.176237 -15718.828885 -468.311471
2633.135049 -15719.170330 -468.527044
2635.093861 -15719.511774 -468.742618
2637.052673 -15719.853218 -468.958191
2639.011484 -15720.194662 -469.173765
2640.970296 -15720.536107 -469.389338
2642.929108 -15720.877551 -469.604912
2644.887920 -15721.218995 -469.820485
2646.846732 -15721.560439 -470.036059
2648.805544 -15721.901884 -470.251632
2650.764355 -15722.243328 -470.467206
2652.723167 -15722.584772 -470.682780
2654.681979 -15722.926217 -470.898353
2656.640791 -15723.267661 -471.113927
2658.599603 -15723.609105 -471.329500
2660.558415 -15723.950549 -471.545074
2662.517227 -15724.291994 -471.760647
2664.476038 -15724.633438 -471.976221
2666.434850 -15724.974882 -472.191794
2668.393662 -15725.316326 -472.407368
2670.352474 -15725.657771 -472.622941
2672.311286 -15725.999215 -472.838515
2674.270098 -15726.340659 -473.054088
2676.228910 -15726.682103 -473.269662
2678.187721 -15727.023548 -473.485236
2680.146533 -15727.364992 -473.700809
2682.105345 -15727.706436 -473.916383
2684.064157 -15728.047881 -474.131956
2686.022969 -15728.389325 -474.347530
2687.981781 -15728.730769 -474.563103
2689.940592 -15729.072213 -474.778677
2691.899404 -15729.413658 -474.994250
2693.858216 -15729.755102 -475.209824
2695.817028 -15730.096546 -475.425397
2697.775840 -15730.437990 -475.640971
2699.734652 -15730.779435 -475.856544
2701.693464 -15731.120879 -476.072118
2703.652275 -15731.462323 -476.287691
2705.611087 -15731.803768 -476.503265
2707.569899 -15732.145212 -476.718839
2709.528711 -15732.486656 -476.934412
2711.487523 -15732.828100 -477.149986
2713.446335 -15733.169545 -477.365559
2715.405147 -15733.510989 -477.581133
2717.363958 -15733.852433 -477.796706
2719.322770 -15734.193877 -478.012280
2721.281582 -15734.535322 -478.227853
2723.240394 -15734.876766 -478.443427
2725.199206 -15735.218210 -478.659000
2727.158018 -15735.559654 -478.874574
2729.116829 -15735.901099 -479.090147
2731.075641 -15736.242543 -479.305721
2733.034453 -15736.583987 -479.521294
2734.993265 -15736.925432 -479.736868
2736.952077 -15737.266876 -479.952442
2738.910889 -15737.608320 -480.168015
2740.869701 -15737.949764 -480.383589
2742.828512 -15738.291209 -480.599162
2744.787324 -15738.632653 -480.814736
2746.746136 -15738.974097 -481.030309
2748.704948 -15739.315541 -481.245883
2750.663760 -15739.656986 -481.461456
2752.622572 -15739.998430 -481.677030
2754.581384 -15740.339874 -481.892603
2756.540195 -15740.681318 -482.108177
2758.499007 -15741.022763 -482.323750
2760.457819 -15741.364207 -482.539324
2762.416631 -15741.705651 -482.754897
2764.375443 -15742.047096 -482.970471
2766.334255 -15742.388540 -483.186045
2768.293066 -15742.729984 -483.401618
2770.251878 -15743.071428 -483.617192
2772.210690 -15743.412873 -483.832765
2774.169502 -15743.754317 -484.048339
2776.128314 -15744.095761 -484.263912
2778.087126 -15744.437205 -484.479486
2780.045938 -15744.778650 -484.695059
2782.004749 -15745.120094 -484.910633
2783.963561 -15745.461538 -485.126206
2785.922373 -15745.802982 -485.341780
2787.881185 -15746.144427 -485.557353
2789.839997 -15746.485871 -485.772927
2791.798809 -15746.827315 -485.988501
2793.757621 -15747.168760 -486.204074
2795.716432 -15747.510204 -486.419648
2797.675244 -15747.851648 -486.635221
2799.634056 -15748.193092 -486.850795
2801.592868 -15748.534537 -487.066368
2803.551680 -15748.875981 -487.281942
2805.510492 -15749.217425 -487.497515
2807.469303 -15749.558869 -487.713089
2809.428115 -15749.900314 -487.928662
2811.386927 -15750.241758 -488.144236
2813.345739 -15750.583202 -488.359809
2815.304551 -15750.924646 -488.575383
2817.263363 -15751.266091 -488.790956
2819.222175 -15751.607535 -489.006530
2821.180986 -15751.948979 -489.222104
2823.139798 -15752.290424 -489.437677
2825.098610 -15752.631868 -489.653251
2827.057422 -15752.973312 -489.868824
2829.016234 -15753.314756 -490.084398
2830.975046 -15753.656201 -490.299971
2832.933858 -15753.997645 -490.515545
2834.892669 -15754.339089 -490.731118
2836.851481 -15754.680533 -490.946692
2838.810293 -15755.021978 -491.162265
2840.769105 -15755.363422 -491.377839
2842.727917 -15755.704866 -491.593412
2844.686729 -15756.046310 -491.808986
2846.645540 -15756.387755 -492.024559
2848.604352 -15756.729199 -492.240133
2850.563164 -15757.070643 -492.455707
2852.521976 -15757.412088 -492.671280
2854.480788 -15757.753532 -492.886854
2856.439600 -15758.094976 -493.102427
2858.398412 -15758.436420 -493.318001
2860.357223 -15758.777865 -493.533574
2862.316035 -15759.119309 -493.749148
2864.274847 -15759.460753 -493.964721
2866.233659 -15759.802197 -494.180295
2868.192471 -15760.143642 -494.395868
2870.151283 -15760.485086 -494.611442
2872.110095 -15760.826530 -494.827015
2874.068906 -15761.167975 -495.042589
2876.027718 -15761.509419 -495.258162
2877.986530 -15761.850863 -495.473736
2879.945342 -15762.192307 -495.689310
2881.904154 -15762.533752 -495.904883
2883.862966 -15762.875196 -496.120457
2885.821777 -15763.216640 -496.336030
2887.780589 -15763.558084 -496.551604
2889.739401 -15763.899529 -496.767177
2891.698213 -15764.240973 -496.982751
2893.657025 -15764.582417 -497.198324
2895.615837 -15764.923861 -497.413898
2897.574649 -15765.265306 -497.629471
2899.533460 -15765.606750 -497.845045
2901.492272 -15765.948194 -498.060618
2903.451084 -15766.289639 -498.276192
2905.409896 -15766.631083 -498.491766
2907.368708 -15766.972527 -498.707339
2909.327520 -15767.313971 -498.922913
2911.286332 -15767.655416 -499.138486
2913.245143 -15767.996860 -499.354060
2915.203955 -15768.338304 -499.569633
2917.162767 -15768.679748 -499.785207
2919.121579 -15769.021193 -500.000780
2921.080391 -15769.362637 -500.216354
2923.039203 -15769.704081 -500.431927
2924.998014 -15770.045525 -500.647501
2926.956826 -15770.386970 -500.863074
2928.915638 -15770.728414 -501.078648
2930.874450 -15771.069858 -501.294221
2932.833262 -15771.411303 -501.509795
2934.792074 -15771.752747 -501.725369
2936.750886 -15772.094191 -501.940942
2938.709697 -15772.435635 -502.156516
2940.668509 -15772.777080 -502.372089
2942.627321 -15773.118524 -502.587663
2944.586133 -15773.459968 -502.803236
2946.544945 -15773.801412 -503.018810
2948.503757 -15774.142857 -503.234383
2950.462569 -15774.484301 -503.449957
2952.421380 -15774.825745 -503.665530
2954.380192 -15775.167189 -503.881104
2956.339004 -15775.508634 -504.096677
2958.297816 -15775.850078 -504.312251
2960.256628 -15776.191522 -504.527824
2962.215440 -15776.532967 -504.743398
2964.174251 -15776.874411 -504.958972
2966.133063 -15777.215855 -505.174545
2968.091875 -15777.557299 -505.390119
2970.050687 -15777.898744 -505.605692
2972.009499 -15778.240188 -505.821266
2973.968311 -15778.581632 -506.036839
2975.927123 -15778.923076 -506.252413
2977.885934 -15779.264521 -506.467986
2979.844746 -15779.605965 -506.683560
2981.803558 -15779.947409 -506.899133
2983.762370 -15780.288853 -507.114707
2985.721182 -15780.630298 -507.330280
2987.679994 -15780.971742 -507.545854
2989.638806 -15781.313186 -507.761427
2991.597617 -15781.654631 -507.977001
2993.556429 -15781.996075 -508.192575
2995.515241 -15782.337519 -508.408148
2997.474053 -15782.678963 -508.623722
2999.432865 -15783.020408 -508.839295
3001.391677 -15783.361852 -509.054869
3003.350488 -15783.703296 -509.270442
3005.309300 -15784.044740 -509.486016
3007.268112 -15784.386185 -509.701589
3009.226924 -15784.727629 -509.917163
3011.185736 -15785.069073 -510.132736
3013.144548 -15785.410517 -510.348310
3015.103360 -15785.751962 -510.563883
3017.062171 -15786.093406 -510.779457
3019.020983 -15786.434850 -510.995031
3020.979795 -15786.776295 -511.210604
3022.938607 -15787.117739 -511.426178
3024.897419 -15787.459183 -511.641751
3026.856231 -15787.800627 -511.857325
3028.815043 -15788.142072 -512.072898
3030.773854 -15788.483516 -512.288472
3032.732666 -15788.824960 -512.504045
3034.691478 -15789.166404 -512.719619
3036.650290 -15789.507849 -512.935192
3038.609102 -15789.849293 -513.150766
3040.567914 -15790.190737 -513.366339
3042.526725 -15790.532182 -513.581913
3044.485537 -15790.873626 -513.797486
3046.444349 -15791.215070 -514.013060
3048.403161 -15791.556514 -514.228634
3050.361973 -15791.897959 -514.444207
3052.320785 -15792.239403 -514.659781
3054.279597 -15792.580847 -514.875354
3056.238408 -15792.922291 -515.090928
3058.197220 -15793.263736 -515.306501
3060.156032 -15793.605180 -515.522075
3062.114844 -15793.946624 -515.737648
3064.073656 -15794.288068 -515.953222
3066.032468 -15794.629513 -516.168795
3067.991280 -15794.970957 -516.384369
3069.950091 -15795.312401 -516.599942
3071.908903 -15795.653846 -516.815516
3073.867715 -15795.995290 -517.031089
3075.826527 -15796.336734 -517.246663
3077.785339 -15796.678178 -517.462237
3079.744151 -15797.019623 -517.677810
3081.702962 -15797.361067 -517.893384
3083.661774 -15797.702511 -518.108957
3085.620586 -15798.043955 -518.324531
3087.579398 -15798.385400 -518.540104
3089.538210 -15798.726844 -518.755678
3091.497022 -15799.068288 -518.971251
3093.455834 -15799.409732 -519.186825
3095.414645 -15799.751177 -519.402398
3097.373457 -15800.092621 -519.617972
3099.332269 -15800.434065 -519.833545
3101.291081 -15800.775510 -520.049119
3103.249893 -15801.116954 -520.264692
3105.208705 -15801.458398 -520.480266
3107.167517 -15801.799842 -520.695840
3109.126328 -15802.141287 -520.911413
3111.085140 -15802.482731 -521.126987
3113.043952 -15802.824175 -521.342560
3115.002764 -15803.165619 -521.558134
3116.961576 -15803.507064 -521.773707
3118.920388 -15803.848508 -521.989281
3120.879199 -15804.189952 -522.204854
3122.838011 -15804.531396 -522.420428
3124.796823 -15804.872841 -522.636001
3126.755635 -15805.214285 -522.851575
3128.714447 -15805.555729 -523.067148
3130.673259 -15805.897174 -523.282722
3132.632071 -15806.238618 -523.498296
3134.590882 -15806.580062 -523.713869
3136.549694 -15806.921506 -523.929443
3138.508506 -15807.262951 -524.145016
3140.467318 -15807.604395 -524.360590
3142.426130 -15807.945839 -524.576163
3144.384942 -15808.287283 -524.791737
3146.343754 -15808.628728 -525.007310
3148.302565 -15808.970172 -525.222884
3150.261377 -15809.311616 -525.438457
3152.220189 -15809.653060 -525.654031
3154.179001 -15809.994505 -525.869604
3156.137813 -15810.335949 -526.085178
3158.096625 -15810.677393 -526.300751
3160.055436 -15811.018838 -526.516325
3162.014248 -15811.360282 -526.731899
3163.973060 -15811.701726 -526.947472
3165.931872 -15812.043170 -527.163046
3167.890684 -15812.384615 -527.378619
3169.849496 -15812.726059 -527.594193
3171.808308 -15813.067503 -527.809766
3173.767119 -15813.408947 -528.025340
3175.725931 -15813.750392 -528.240913
3177.684743 -15814.091836 -528.456487
3179.643555 -15814.433280 -528.672060
3181.602367 -15814.774724 -528.887634
3183.561179 -15815.116169 -529.103207
3185.519991 -15815.457613 -529.318781
3187.478802 -15815.799057 -529.534354
3189.437614 -15816.140502 -529.749928
3191.396426 -15816.481946 -529.965502
3193.355238 -15816.823390 -530.181075
3195.314050 -15817.164834 -530.396649
3197.272862 -15817.506279 -530.612222
3199.231673 -15817.847723 -530.827796
3201.190485 -15818.189167 -531.043369
3203.149297 -15818.530611 -531.258943
3205.108109 -15818.872056 -531.474516
3207.066921 -15819.213500 -531.690090
3209.025733 -15819.554944 -531.905663
3210.984545 -15819.896389 -532.121237
3212.943356 -15820.237833 -532.336810
3214.902168 -15820.579277 -532.552384
3216.860980 -15820.920721 -532.767957
3218.819792 -15821.262166 -532.983531
3220.778604 -15821.603610 -533.199105
3222.737416 -15821.945054 -533.414678
3224.696228 -15822.286498 -533.630252
3226.655039 -15822.627943 -533.845825
3228.613851 -15822.969387 -534.061399
3230.572663 -15823.310831 -534.276972
3232.531475 -15823.652275 -534.492546
3234.490287 -15823.993720 -534.708119
3236.449099 -15824.335164 -534.923693
3238.407910 -15824.676608 -535.139266
3240.366722 -15825.018053 -535.354840
3242.325534 -15825.359497 -535.570413
3244.284346 -15825.700941 -535.785987
3246.243158 -15826.042385 -536.001561
3248.201970 -15826.383830 -536.217134
3250.160782 -15826.725274 -536.432708
3252.119593 -15827.066718 -536.648281
3254.078405 -15827.408162 -536.863855
3256.037217 -15827.749607 -537.079428
3257.996029 -15828.091051 -537.295002
3259.954841 -15828.432495 -537.510575
3261.913653 -15828.773939 -537.726149
3263.872465 -15829.115384 -537.941722
3265.831276 -15829.456828 -538.157296
3267.790088 -15829.798272 -538.372869
3269.748900 -15830.139717 -538.588443
3271.707712 -15830.481161 -538.804016
3273.666524 -15830.822605 -539.019590
3275.625336 -15831.164049 -539.235164
3277.584147 -15831.505494 -539.450737
3279.542959 -15831.846938 -539.666311
3281.501771 -15832.188382 -539.881884
3283.460583 -15832.529826 -540.097458
3285.419395 -15832.871271 -540.313031
3287.378207 -15833.212715 -540.528605
3289.337019 -15833.554159 -540.744178
3291.295830 -15833.895603 -540.959752
3293.254642 -15834.237048 -541.175325
3295.213454 -15834.578492 -541.390899
3297.172266 -15834.919936 -541.606472
3299.131078 -15835.261381 -541.822046
3301.089890 -15835.602825 -542.037619
3303.048702 -15835.944269 -542.253193
3305.007513 -15836.285713 -542.468767
3306.966325 -15836.627158 -542.684340
3308.925137 -15836.968602 -542.899914
3310.883949 -15837.310046 -543.115487
3312.842761 -15837.651490 -543.331061
3314.801573 -15837.992935 -543.546634
3316.760384 -15838.334379 -543.762208
3318.719196 -15838.675823 -543.977781
3320.678008 -15839.017267 -544.193355
3322.636820 -15839.358712 -544.408928
3324.595632 -15839.700156 -544.624502
3326.554444 -15840.041600 -544.840075
3328.513256 -15840.383045 -545.055649
3330.472067 -15840.724489 -545.271222
3332.430879 -15841.065933 -545.486796
3334.389691 -15841.407377 -545.702370
3336.348503 -15841.748822 -545.917943
3338.307315 -15842.090266 -546.133517
3340.266127 -15842.431710 -546.349090
3342.224939 -15842.773154 -546.564664
3344.183750 -15843.114599 -546.780237
3346.142562 -15843.456043 -546.995811
3348.101374 -15843.797487 -547.211384
3350.060186 -15844.138931 -547.426958
3352.018998 -15844.480376 -547.642531
3353.977810 -15844.821820 -547.858105
3355.936621 -15845.163264 -548.073678
3357.895433 -15845.504709 -548.289252
3359.854245 -15845.846153 -548.504826
3361.813057 -15846.187597 -548.720399
3363.771869 -15846.529041 -548.935973
3365.730681 -15846.870486 -549.151546
3367.689493 -15847.211930 -549.367120
3369.648304 -15847.553374 -549.582693
3371.607116 -15847.894818 -549.798267
3373.565928 -15848.236263 -550.013840
3375.524740 -15848.577707 -550.229414
3377.483552 -15848.919151 -550.444987
3379.442364 -15849.260596 -550.660561
3381.401176 -15849.602040 -550.876134
3383.359987 -15849.943484 -551.091708
3385.318799 -15850.284928 -551.307281
3387.277611 -15850.626373 -551.522855
3389.236423 -15850.967817 -551.738429
3391.195235 -15851.309261 -551.954002
3393.154047 -15851.650705 -552.169576
3395.112858 -15851.992150 -552.385149
3397.071670 -15852.333594 -552.600723
3399.030482 -15852.675038 -552.816296
3400.989294 -15853.016482 -553.031870
3402.948106 -15853.357927 -553.247443
3404.906918 -15853.699371 -553.463017
3406.865730 -15854.040815 -553.678590
3408.824541 -15854.382260 -553.894164
3410.783353 -15854.723704 -554.109737
3412.742165 -15855.065148 -554.325311
3414.700977 -15855.406592 -554.540884
3416.659789 -15855.748037 -554.756458
3418.618601 -15856.089481 -554.972032
3420.577413 -15856.430925 -555.187605
3422.536224 -15856.772369 -555.403179
3424.495036 -15857.113814 -555.618752
3426.453848 -15857.455258 -555.834326
3428.412660 -15857.796702 -556.049899
3430.371472 -15858.138146 -556.265473
3432.330284 -15858.479591 -556.481046
3434.289095 -15858.821035 -556.696620
3436.247907 -15859.162479 -556.912193
3438.206719 -15859.503924 -557.127767
3440.165531 -15859.845368 -557.343340
3442.124343 -15860.186812 -557.558914
3444.083155 -15860.528256 -557.774487
3446.041967 -15860.869701 -557.990061
3448.000778 -15861.211145 -558.205635
3449.959590 -15861.552589 -558.421208
3451.918402 -15861.894033 -558.636782
3453.877214 -15862.235478 -558.852355
3455.836026 -15862.576922 -559.067929
3457.794838 -15862.918366 -559.283502
3459.753650 -15863.259810 -559.499076
3461.712461 -15863.601255 -559.714649
3463.671273 -15863.942699 -559.930223
3465.630085 -15864.284143 -560.145796
3467.588897 -15864.625588 -560.361370
3469.547709 -15864.967032 -560.576943
3471.506521 -15865.308476 -560.792517
3473.465332 -15865.649920 -561.008091
3475.424144 -15865.991365 -561.223664
3477.382956 -15866.332809 -561.439238
3479.341768 -15866.674253 -561.654811
3481.300580 -15867.015697 -561.870385
3483.259392 -15867.357142 -562.085958
3485.218204 -15867.698586 -562.301532
3487.177015 -15868.040030 -562.517105
3489.135827 -15868.381474 -562.732679
3491.094639 -15868.722919 -562.948252
3493.053451 -15869.064363 -563.163826
3495.012263 -15869.405807 -563.379399
3496.971075 -15869.747252 -563.594973
3498.929887 -15870.088696 -563.810546
3500.888698 -15870.430140 -564.026120
3502.847510 -15870.771584 -564.241694
3504.806322 -15871.113029 -564.457267
3506.765134 -15871.454473 -564.672841
3508.723946 -15871.795917 -564.888414
3510.682758 -15872.137361 -565.103988
3512.641569 -15872.478806 -565.319561
3514.600381 -15872.820250 -565.535135
3516.559193 -15873.161694 -565.750708
3518.518005 -15873.503138 -565.966282
3520.476817 -15873.844583 -566.181855
3522.435629 -15874.186027 -566.397429
3524.394441 -15874.527471 -566.613002
3526.353252 -15874.868916 -566.828576
3528.312064 -15875.210360 -567.044149
3530.270876 -15875.551804 -567.259723
3532.229688 -15875.893248 -567.475297
3534.188500 -15876.234693 -567.690870
3536.147312 -15876.576137 -567.906444
3538.106124 -15876.917581 -568.122017
3540.064935 -15877.259025 -568.337591
3542.023747 -15877.600470 -568.553164
3543.982559 -15877.941914 -568.768738
3545.941371 -15878.283358 -568.984311
3547.900183 -15878.624803 -569.199885
3549.858995 -15878.966247 -569.415458
3551.817806 -15879.307691 -569.631032
3553.776618 -15879.649135 -569.846605
3555.735430 -15879.990580 -570.062179
3557.694242 -15880.332024 -570.277752
3559.653054 -15880.673468 -570.493326
3561.611866 -15881.014912 -570.708900
3563.570678 -15881.356357 -570.924473
3565.529489 -15881.697801 -571.140047
3567.488301 -15882.039245 -571.355620
3569.447113 -15882.380689 -571.571194
3571.405925 -15882.722134 -571.786767
3573.364737 -15883.063578 -572.002341
3575.323549 -15883.405022 -572.217914
3577.282361 -15883.746467 -572.433488
3579.241172 -15884.087911 -572.649061
3581.199984 -15884.429355 -572.864635
3583.158796 -15884.770799 -573.080208
3585.117608 -15885.112244 -573.295782
3587.076420 -15885.453688 -573.511356
3589.035232 -15885.795132 -573.726929
3590.994043 -15886.136576 -573.942503
3592.952855 -15886.478021 -574.158076
3594.911667 -15886.819465 -574.373650
3596.870479 -15887.160909 -574.589223
3598.829291 -15887.502353 -574.804797
3600.788103 -15887.843798 -575.020370
3602.746915 -15888.185242 -575.235944
3604.705726 -15888.526686 -575.451517
3606.664538 -15888.868131 -575.667091
3608.623350 -15889.209575 -575.882664
3610.582162 -15889.551019 -576.098238
3612.540974 -15889.892463 -576.313811
3614.499786 -15890.233908 -576.529385
3616.458598 -15890.575352 -576.744959
3618.417409 -15890.916796 -576.960532
3620.376221 -15891.258240 -577.176106
3622.335033 -15891.599685 -577.391679
3624.293845 -15891.941129 -577.607253
3626.252657 -15892.282573 -577.822826
3628.211469 -15892.624017 -578.038400
3630.170280 -15892.965462 -578.253973
3632.129092 -15893.306906 -578.469547
3634.087904 -15893.648350 -578.685120
3636.046716 -15893.989795 -578.900694
3638.005528 -15894.331239 -579.116267
3639.964340 -15894.672683 -579.331841
3641.923152 -15895.014127 -579.547414
3643.881963 -15895.355572 -579.762988
3645.840775 -15895.697016 -579.978562
3647.799587 -15896.038460 -580.194135
3649.758399 -15896.379904 -580.409709
3651.717211 -15896.721349 -580.625282
3653.676023 -15897.062793 -580.840856
3655.634835 -15897.404237 -581.056429
3657.593646 -15897.745681 -581.272003
3659.552458 -15898.087126 -581.487576
3661.511270 -15898.428570 -581.703150
3663.470082 -15898.770014 -581.918723
3665.428894 -15899.111459 -582.134297
3667.387706 -15899.452903 -582.349870
3669.346517 -15899.794347 -582.565444
3671.305329 -15900.135791 -582.781017
3673.264141 -15900.477236 -582.996591
3675.222953 -15900.818680 -583.212165
3677.181765 -15901.160124 -583.427738
3679.140577 -15901.501568 -583.643312
3681.099389 -15901.843013 -583.858885
3683.058200 -15902.184457 -584.074459
3685.017012 -15902.525901 -584.290032
3686.975824 -15902.867345 -584.505606
3688.934636 -15903.208790 -584.721179
3690.893448 -15903.550234 -584.936753
3692.852260 -15903.891678 -585.152326
3694.811072 -15904.233123 -585.367900
3696.769883 -15904.574567 -585.583473
3698.728695 -15904.916011 -585.799047
3700.687507 -15905.257455 -586.014621
3702.646319 -15905.598900 -586.230194
3704.605131 -15905.940344 -586.445768
3706.563943 -15906.281788 -586.661341
3708.522754 -15906.623232 -586.876915
3710.481566 -15906.964677 -587.092488
3712.440378 -15907.306121 -587.308062
3714.399190 -15907.647565 -587.523635
3716.358002 -15907.989010 -587.739209
3718.316814 -15908.330454 -587.954782
3720.275626 -15908.671898 -588.170356
3722.234437 -15909.013342 -588.385929
3724.193249 -15909.354787 -588.601503
3726.152061 -15909.696231 -588.817076
3728.110873 -15910.037675 -589.032650
3730.069685 -15910.379119 -589.248224
3732.028497 -15910.720564 -589.463797
3733.987309 -15911.062008 -589.679371
3735.946120 -15911.403452 -589.894944
3737.904932 -15911.744896 -590.110518
3739.863744 -15912.086341 -590.326091
3741.822556 -15912.427785 -590.541665
3743.781368 -15912.769229 -590.757238
3745.740180 -15913.110674 -590.972812
3747.698991 -15913.452118 -591.188385
3749.657803 -15913.793562 -591.403959
3751.616615 -15914.135006 -591.619532
3753.575427 -15914.476451 -591.835106
3755.534239 -15914.817895 -592.050679
3757.493051 -15915.159339 -592.266253
3759.451863 -15915.500783 -592.481827
3761.410674 -15915.842228 -592.697400
3763.369486 -15916.183672 -592.912974
3765.328298 -15916.525116 -593.128547
3767.287110 -15916.866560 -593.344121
3769.245922 -15917.208005 -593.559694
3771.204734 -15917.549449 -593.775268
3773.163546 -15917.890893 -593.990841
3775.122357 -15918.232338 -594.206415
3777.081169 -15918.573782 -594.421988
3779.039981 -15918.915226 -594.637562
3780.998793 -15919.256670 -594.853135
3782.957605 -15919.598115 -595.068709
3784.916417 -15919.939559 -595.284282
3786.875228 -15920.281003 -595.499856
3788.834040 -15920.622447 -595.715430
3790.792852 -15920.963892 -595.931003
3792.751664 -15921.305336 -596.146577
3794.710476 -15921.646780 -596.362150
3796.669288 -15921.988224 -596.577724
3798.628100 -15922.329669 -596.793297
3800.586911 -15922.671113 -597.008871
3802.545723 -15923.012557 -597.224444
3804.504535 -15923.354002 -597.440018
3806.463347 -15923.695446 -597.655591
3808.422159 -15924.036890 -597.871165
3810.380971 -15924.378334 -598.086738
3812.339783 -15924.719779 -598.302312
3814.298594 -15925.061223 -598.517886
3816.257406 -15925.402667 -598.733459
3818.216218 -15925.744111 -598.949033
3820.175030 -15926.085556 -599.164606
3822.133842 -15926.427000 -599.380180
3824.092654 -15926.768444 -599.595753
3826.051465 -15927.109888 -599.811327
3828.010277 -15927.451333 -600.026900
3829.969089 -15927.792777 -600.242474
3831.927901 -15928.134221 -600.458047
3833.886713 -15928.475666 -600.673621
3835.845525 -15928.817110 -600.889194
3837.804337 -15929.158554 -601.104768
3839.763148 -15929.499998 -601.320341
3841.721960 -15929.841443 -601.535915
3843.680772 -15930.182887 -601.751489
3845.639584 -15930.524331 -601.967062
3847.598396 -15930.865775 -602.182636
3849.557208 -15931.207220 -602.398209
3851.516020 -15931.548664 -602.613783
3853.474831 -15931.890108 -602.829356
3855.433643 -15932.231552 -603.044930
3857.392455 -15932.572997 -603.260503
3859.351267 -15932.914441 -603.476077
3861.310079 -15933.255885 -603.691650
3863.268891 -15933.597330 -603.907224
3865.227702 -15933.938774 -604.122797
3867.186514 -15934.280218 -604.338371
3869.145326 -15934.621662 -604.553944
3871.104138 -15934.963107 -604.769518
3873.062950 -15935.304551 -604.985092
3875.021762 -15935.645995 -605.200665
3876.980574 -15935.987439 -605.416239
3878.939385 -15936.328884 -605.631812
3880.898197 -15936.670328 -605.847386
3882.857009 -15937.011772 -606.062959
3884.815821 -15937.353216 -606.278533
3886.774633 -15937.694661 -606.494106
3888.733445 -15938.036105 -606.709680
3890.692257 -15938.377549 -606.925253
3892.651068 -15938.718994 -607.140827
3894.609880 -15939.060438 -607.356400
3896.568692 -15939.401882 -607.571974
3898.527504 -15939.743326 -607.787547
3900.486316 -15940.084771 -608.003121
3902.445128 -15940.426215 -608.218695
3904.403939 -15940.767659 -608.434268
3906.362751 -15941.109103 -608.649842
3908.321563 -15941.450548 -608.865415
3910.280375 -15941.791992 -609.080989
3912.239187 -15942.133436 -609.296562
3914.197999 -15942.474881 -609.512136
3916.156811 -15942.816325 -609.727709
3918.115622 -15943.157769 -609.943283
3920.074434 -15943.499213 -610.158856
3922.033246 -15943.840658 -610.374430
3923.992058 -15944.182102 -610.590003
3925.950870 -15944.523546 -610.805577
3927.909682 -15944.864990 -611.021151
3929.868494 -15945.206435 -611.236724
3931.827305 -15945.547879 -611.452298
3933.786117 -15945.889323 -611.667871
3935.744929 -15946.230767 -611.883445
3937.703741 -15946.572212 -612.099018
3939.662553 -15946.913656 -612.314592
3941.621365 -15947.255100 -612.530165
3943.580176 -15947.596545 -612.745739
3945.538988 -15947.937989 -612.961312
3947.497800 -15948.279433 -613.176886
3949.456612 -15948.620877 -613.392459
3951.415424 -15948.962322 -613.608033
3953.374236 -15949.303766 -613.823606
3955.333048 -15949.645210 -614.039180
3957.291859 -15949.986654 -614.254754
3959.250671 -15950.328099 -614.470327
3961.209483 -15950.669543 -614.685901
3963.168295 -15951.010987 -614.901474
3965.127107 -15951.352431 -615.117048
3967.085919 -15951.693876 -615.332621
3969.044731 -15952.035320 -615.548195
3971.003542 -15952.376764 -615.763768
3972.962354 -15952.718209 -615.979342
3974.921166 -15953.059653 -616.194915
3976.879978 -15953.401097 -616.410489
3978.838790 -15953.742541 -616.626062
3980.797602 -15954.083986 -616.841636
3982.756413 -15954.425430 -617.057209
3984.715225 -15954.766874 -617.272783
3986.674037 -15955.108318 -617.488357
3988.632849 -15955.449763 -617.703930
3990.591661 -15955.791207 -617.919504
3992.550473 -15956.132651 -618.135077
3994.509285 -15956.474095 -618.350651
3996.468096 -15956.815540 -618.566224
3998.426908 -15957.156984 -618.781798
4000.385720 -15957.498428 -618.997371
4002.344532 -15957.839873 -619.212945
4004.303344 -15958.181317 -619.428518
4006.262156 -15958.522761 -619.644092
4008.220968 -15958.864205 -619.859665
4010.179779 -15959.205650 -620.075239
4012.138591 -15959.547094 -620.290812
4014.097403 -15959.888538 -620.506386
4016.056215 -15960.229982 -620.721960
4018.015027 -15960.571427 -620.937533
4019.973839 -15960.912871 -621.153107
4021.932650 -15961.254315 -621.368680
4023.891462 -15961.595759 -621.584254
4025.850274 -15961.937204 -621.799827
4027.809086 -15962.278648 -622.015401
4029.767898 -15962.620092 -622.230974
4031.726710 -15962.961537 -622.446548
4033.685522 -15963.302981 -622.662121
4035.644333 -15963.644425 -622.877695
4037.603145 -15963.985869 -623.093268
4039.561957 -15964.327314 -623.308842
4041.520769 -15964.668758 -623.524416
4043.479581 -15965.010202 -623.739989
4045.438393 -15965.351646 -623.955563
4047.397205 -15965.693091 -624.171136
4049.356016 -15966.034535 -624.386710
4051.314828 -15966.375979 -624.602283
4053.273640 -15966.717423 -624.817857
4055.232452 -15967.058868 -625.033430
4057.191264 -15967.400312 -625.249004
4059.150076 -15967.741756 -625.464577
4061.108887 -15968.083201 -625.680151
4063.067699 -15968.424645 -625.895724
4065.026511 -15968.766089 -626.111298
4066.985323 -15969.107533 -626.326871
4068.944135 -15969.448978 -626.542445
4070.902947 -15969.790422 -626.758019
4072.861759 -15970.131866 -626.973592
4074.820570 -15970.473310 -627.189166
4076.779382 -15970.814755 -627.404739
4078.738194 -15971.156199 -627.620313
4080.697006 -15971.497643 -627.835886
4082.655818 -15971.839088 -628.051460
4084.614630 -15972.180532 -628.267033
4086.573442 -15972.521976 -628.482607
4088.532253 -15972.863420 -628.698180
4090.491065 -15973.204865 -628.913754
4092.449877 -15973.546309 -629.129327
4094.408689 -15973.887753 -629.344901
4096.367501 -15974.229197 -629.560474
4098.326313 -15974.570642 -629.776048
4100.285124 -15974.912086 -629.991622
4102.243936 -15975.253530 -630.207195
4104.202748 -15975.594974 -630.422769
4106.161560 -15975.936419 -630.638342
4108.120372 -15976.277863 -630.853916
4110.079184 -15976.619307 -631.069489
4112.037996 -15976.960752 -631.285063
4113.996807 -15977.302196 -631.500636
4115.955619 -15977.643640 -631.716210
4117.914431 -15977.985084 -631.931783
4119.873243 -15978.326529 -632.147357
4121.832055 -15978.667973 -632.362930
4123.790867 -15979.009417 -632.578504
4125.749679 -15979.350861 -632.794077
4127.708490 -15979.692306 -633.009651
4129.667302 -15980.033750 -633.225225
4131.626114 -15980.375194 -633.440798
4133.584926 -15980.716638 -633.656372
4135.543738 -15981.058083 -633.871945
4137.502550 -15981.399527 -634.087519
4139.461361 -15981.740971 -634.303092
4141.420173 -15982.082416 -634.518666
4143.378985 -15982.423860 -634.734239
4145.337797 -15982.765304 -634.949813
4147.296609 -15983.106748 -635.165386
4149.255421 -15983.448193 -635.380960
4151.214233 -15983.789637 -635.596533
4153.173044 -15984.131081 -635.812107
4155.131856 -15984.472525 -636.027681
4157.090668 -15984.813970 -636.243254
4159.049480 -15985.155414 -636.458828
4161.008292 -15985.496858 -636.674401
4162.967104 -15985.838302 -636.889975
4164.925916 -15986.179747 -637.105548
4166.884727 -15986.521191 -637.321122
4168.843539 -15986.862635 -637.536695
4170.802351 -15987.204080 -637.752269
4172.761163 -15987.545524 -637.967842
4174.719975 -15987.886968 -638.183416
4176.678787 -15988.228412 -638.398989
4178.637598 -15988.569857 -638.614563
4180.596410 -15988.911301 -638.830136
4182.555222 -15989.252745 -639.045710
4184.514034 -15989.594189 -639.261284
4186.472846 -15989.935634 -639.476857
4188.431658 -15990.277078 -639.692431
4190.390470 -15990.618522 -639.908004
4192.349281 -15990.959966 -640.123578
4194.308093 -15991.301411 -640.339151
4196.266905 -15991.642855 -640.554725
4198.225717 -15991.984299 -640.770298
4200.184529 -15992.325744 -640.985872
4202.143341 -15992.667188 -641.201445
4204.102153 -15993.008632 -641.417019
4206.060964 -15993.350076 -641.632592
4208.019776 -15993.691521 -641.848166
4209.978588 -15994.032965 -642.063739
4211.937400 -15994.374409 -642.279313
4213.896212 -15994.715853 -642.494887
4215.855024 -15995.057298 -642.710460
4217.813835 -15995.398742 -642.926034
4219.772647 -15995.740186 -643.141607
4221.731459 -15996.081630 -643.357181
4223.690271 -15996.423075 -643.572754
4225.649083 -15996.764519 -643.788328
4227.607895 -15997.105963 -644.003901
4229.566707 -15997.447408 -644.219475
4231.525518 -15997.788852 -644.435048
4233.484330 -15998.130296 -644.650622
4235.443142 -15998.471740 -644.866195
4237.401954 -15998.813185 -645.081769
4239.360766 -15999.154629 -645.297342
4241.319578 -15999.496073 -645.512916
4243.278390 -15999.837517 -645.728490
4245.237201 -16000.178962 -645.944063
4247.196013 -16000.520406 -646.159637
4249.154825 -16000.861850 -646.375210
4251.113637 -16001.203295 -646.590784
4253.072449 -16001.544739 -646.806357
4255.031261 -16001.886183 -647.021931
4256.990072 -16002.227627 -647.237504
4258.948884 -16002.569072 -647.453078
4260.907696 -16002.910516 -647.668651
4262.866508 -16003.251960 -647.884225
4264.825320 -16003.593404 -648.099798
4266.784132 -16003.934849 -648.315372
4268.742944 -16004.276293 -648.530946
4270.701755 -16004.617737 -648.746519
4272.660567 -16004.959181 -648.962093
4274.619379 -16005.300626 -649.177666
4276.578191 -16005.642070 -649.393240
4278.537003 -16005.983514 -649.608813
4280.495815 -16006.324959 -649.824387
4282.454627 -16006.666403 -650.039960
4284.413438 -16007.007847 -650.255534
4286.372250 -16007.349291 -650.471107
4288.331062 -16007.690736 -650.686681
4290.289874 -16008.032180 -650.902254
4292.248686 -16008.373624 -651.117828
4294.207498 -16008.715068 -651.333401
4296.166309 -16009.056513 -651.548975
4298.125121 -16009.397957 -651.764549
4300.083933 -16009.739401 -651.980122
4302.042745 -16010.080845 -652.195696
4304.001557 -16010.422290 -652.411269
4305.960369 -16010.763734 -652.626843
4307.919181 -16011.105178 -652.842416
4309.877992 -16011.446623 -653.057990
4311.836804 -16011.788067 -653.273563
4313.795616 -16012.129511 -653.489137
4315.754428 -16012.470955 -653.704710
4317.713240 -16012.812400 -653.920284
4319.672052 -16013.153844 -654.135857
4321.630863 -16013.495288 -654.351431
4323.589675 -16013.836732 -654.567004
4325.548487 -16014.178177 -654.782578
4327.507299 -16014.519621 -654.998152
4329.466111 -16014.861065 -655.213725
4331.424923 -16015.202509 -655.429299
4333.383735 -16015.543954 -655.644872
4335.342546 -16015.885398 -655.860446
4337.301358 -16016.226842 -656.076019
4339.260170 -16016.568287 -656.291593
4341.218982 -16016.909731 -656.507166
4343.177794 -16017.251175 -656.722740
4345.136606 -16017.592619 -656.938313
4347.095418 -16017.934064 -657.153887
4349.054229 -16018.275508 -657.369460
4351.013041 -16018.616952 -657.585034
4352.971853 -16018.958396 -657.800607
4354.930665 -16019.299841 -658.016181
4356.889477 -16019.641285 -658.231755
4358.848289 -16019.982729 -658.447328
4360.807100 -16020.324173 -658.662902
4362.765912 -16020.665618 -658.878475
4364.724724 -16021.007062 -659.094049
4366.683536 -16021.348506 -659.309622
4368.642348 -16021.689951 -659.525196
4370.601160 -16022.031395 -659.740769
4372.559972 -16022.372839 -659.956343
4374.518783 -16022.714283 -660.171916
4376.477595 -16023.055728 -660.387490
4378.436407 -16023.397172 -660.603063
4380.395219 -16023.738616 -660.818637
4382.354031 -16024.080060 -661.034211
4384.312843 -16024.421505 -661.249784
4386.271655 -16024.762949 -661.465358
4388.230466 -16025.104393 -661.680931
4390.189278 -16025.445837 -661.896505
4392.148090 -16025.787282 -662.112078
4394.106902 -16026.128726 -662.327652
4396.065714 -16026.470170 -662.543225
4398.024526 -16026.811615 -662.758799
4399.983337 -16027.153059 -662.974372
4401.942149 -16027.494503 -663.189946
4403.900961 -16027.835947 -663.405519
4405.859773 -16028.177392 -663.621093
4407.818585 -16028.518836 -663.836666
4409.777397 -16028.860280 -664.052240
4411.736209 -16029.201724 -664.267814
4413.695020 -16029.543169 -664.483387
4415.653832 -16029.884613 -664.698961
4417.612644 -16030.226057 -664.914534
4419.571456 -16030.567502 -665.130108
4421.530268 -16030.908946 -665.345681
4423.489080 -16031.250390 -665.561255
4425.447892 -16031.591834 -665.776828
4427.406703 -16031.933279 -665.992402
4429.365515 -16032.274723 -666.207975
4431.324327 -16032.616167 -666.423549
4433.283139 -16032.957611 -666.639122
4435.241951 -16033.299056 -666.854696
4437.200763 -16033.640500 -667.070269
4439.159574 -16033.981944 -667.285843
4441.118386 -16034.323388 -667.501417
4443.077198 -16034.664833 -667.716990
4445.036010 -16035.006277 -667.932564
4446.994822 -16035.347721 -668.148137
4448.953634 -16035.689166 -668.363711
4450.912446 -16036.030610 -668.579284
4452.871257 -16036.372054 -668.794858
4454.830069 -16036.713498 -669.010431
4456.788881 -16037.054943 -669.226005
4458.747693 -16037.396387 -669.441578
4460.706505 -16037.737831 -669.657152
4462.665317 -16038.079275 -669.872725
4464.624129 -16038.420720 -670.088299
4466.582940 -16038.762164 -670.303872
4468.541752 -16039.103608 -670.519446
4470.500564 -16039.445052 -670.735020
4472.459376 -16039.786497 -670.950593
4474.418188 -16040.127941 -671.166167
4476.377000 -16040.469385 -671.381740
4478.335811 -16040.810830 -671.597314
4480.294623 -16041.152274 -671.812887
4482.253435 -16041.493718 -672.028461
4484.212247 -16041.835162 -672.244034
4486.171059 -16042.176607 -672.459608
4488.129871 -16042.518051 -672.675181
4490.088683 -16042.859495 -672.890755
4492.047494 -16043.200939 -673.106328
4494.006306 -16043.542384 -673.321902
4495.965118 -16043.883828 -673.537476
4497.923930 -16044.225272 -673.753049
4499.882742 -16044.566716 -673.968623
4501.841554 -16044.908161 -674.184196
4503.800366 -16045.249605 -674.399770
4505.759177 -16045.591049 -674.615343
4507.717989 -16045.932494 -674.830917
4509.676801 -16046.273938 -675.046490
4511.635613 -16046.615382 -675.262064
4513.594425 -16046.956826 -675.477637
4515.553237 -16047.298271 -675.693211
4517.512048 -16047.639715 -675.908784
4519.470860 -16047.981159 -676.124358
4521.429672 -16048.322603 -676.339931
4523.388484 -16048.664048 -676.555505
4525.347296 -16049.005492 -676.771079
4527.306108 -16049.346936 -676.986652
4529.264920 -16049.688380 -677.202226
4531.223731 -16050.029825 -677.417799
4533.182543 -16050.371269 -677.633373
4535.141355 -16050.712713 -677.848946
4537.100167 -16051.054158 -678.064520
4539.058979 -16051.395602 -678.280093
4541.017791 -16051.737046 -678.495667
4542.976603 -16052.078490 -678.711240
4544.935414 -16052.419935 -678.926814
4546.894226 -16052.761379 -679.142387
4548.853038 -16053.102823 -679.357961
4550.811850 -16053.444267 -679.573534
4552.770662 -16053.785712 -679.789108
4554.729474 -16054.127156 -680.004682
4556.688285 -16054.468600 -680.220255
4558.647097 -16054.810044 -680.435829
4560.605909 -16055.151489 -680.651402
4562.564721 -16055.492933 -680.866976
4564.523533 -16055.834377 -681.082549
4566.482345 -16056.175822 -681.298123
4568.441157 -16056.517266 -681.513696
4570.399968 -16056.858710 -681.729270
4572.358780 -16057.200154 -681.944843
4574.317592 -16057.541599 -682.160417
4576.276404 -16057.883043 -682.375990
4578.235216 -16058.224487 -682.591564
4580.194028 -16058.565931 -682.807137
4582.152840 -16058.907376 -683.022711
4584.111651 -16059.248820 -683.238285
4586.070463 -16059.590264 -683.453858
4588.029275 -16059.931709 -683.669432
4589.988087 -16060.273153 -683.885005
4591.946899 -16060.614597 -684.100579
4593.905711 -16060.956041 -684.316152
4595.864522 -16061.297486 -684.531726
4597.823334 -16061.638930 -684.747299
4599.782146 -16061.980374 -684.962873
4601.740958 -16062.321818 -685.178446
4603.699770 -16062.663263 -685.394020
4605.658582 -16063.004707 -685.609593
4607.617394 -16063.346151 -685.825167
4609.576205 -16063.687595 -686.040741
4611.535017 -16064.029040 -686.256314
4613.493829 -16064.370484 -686.471888
4615.452641 -16064.711928 -686.687461
4617.411453 -16065.053373 -686.903035
4619.370265 -16065.394817 -687.118608
4621.329077 -16065.736261 -687.334182
4623.287888 -16066.077705 -687.549755
4625.246700 -16066.419150 -687.765329
4627.205512 -16066.760594 -687.980902
4629.164324 -16067.102038 -688.196476
4631.123136 -16067.443482 -688.412049
4633.081948 -16067.784927 -688.627623
4635.040759 -16068.126371 -688.843196
4636.999571 -16068.467815 -689.058770
4638.958383 -16068.809259 -689.274344
4640.917195 -16069.150704 -689.489917
4642.876007 -16069.492148 -689.705491
4644.834819 -16069.833592 -689.921064
4646.793631 -16070.175037 -690.136638
4648.752442 -16070.516481 -690.352211
4650.711254 -16070.857925 -690.567785
4652.670066 -16071.199369 -690.783358
4654.628878 -16071.540814 -690.998932
4656.587690 -16071.882258 -691.214505
4658.546502 -16072.223702 -691.430079
4660.505314 -16072.565146 -691.645652
4662.464125 -16072.906591 -691.861226
4664.422937 -16073.248035 -692.076799
4666.381749 -16073.589479 -692.292373
4668.340561 -16073.930923 -692.507947
4670.299373 -16074.272368 -692.723520
4672.258185 -16074.613812 -692.939094
4674.216996 -16074.955256 -693.154667
4676.175808 -16075.296701 -693.370241
4678.134620 -16075.638145 -693.585814
4680.093432 -16075.979589 -693.801388
4682.052244 -16076.321033 -694.016961
4684.011056 -16076.662478 -694.232535
4685.969868 -16077.003922 -694.448108
4687.928679 -16077.345366 -694.663682
4689.887491 -16077.686810 -694.879255
4691.846303 -16078.028255 -695.094829
4693.805115 -16078.369699 -695.310402
4695.763927 -16078.711143 -695.525976
4697.722739 -16079.052587 -695.741550
4699.681551 -16079.394032 -695.957123
4701.640362 -16079.735476 -696.172697
4703.599174 -16080.076920 -696.388270
4705.557986 -16080.418365 -696.603844
4707.516798 -16080.759809 -696.819417
4709.475610 -16081.101253 -697.034991
4711.434422 -16081.442697 -697.250564
4713.393233 -16081.784142 -697.466138
4715.352045 -16082.125586 -697.681711
4717.310857 -16082.467030 -697.897285
4719.269669 -16082.808474 -698.112858
4721.228481 -16083.149919 -698.328432
4723.187293 -16083.491363 -698.544006
4725.146105 -16083.832807 -698.759579
4727.104916 -16084.174251 -698.975153
4729.063728 -16084.515696 -699.190726
4731.022540 -16084.857140 -699.406300
4732.981352 -16085.198584 -699.621873
4734.940164 -16085.540029 -699.837447
4736.898976 -16085.881473 -700.053020
4738.857788 -16086.222917 -700.268594
4740.816599 -16086.564361 -700.484167
4742.775411 -16086.905806 -700.699741
4744.734223 -16087.247250 -700.915314
4746.693035 -16087.588694 -701.130888
4748.651847 -16087.930138 -701.346461
4750.610659 -16088.271583 -701.562035
4752.569470 -16088.613027 -701.777609
4754.528282 -16088.954471 -701.993182
4756.487094 -16089.295916 -702.208756
4758.445906 -16089.637360 -702.424329
4760.404718 -16089.978804 -702.639903
4762.363530 -16090.320248 -702.855476
4764.322342 -16090.661693 -703.071050
4766.281153 -16091.003137 -703.286623
4768.239965 -16091.344581 -703.502197
4770.198777 -16091.686025 -703.717770
4772.157589 -16092.027470 -703.933344
4774.116401 -16092.368914 -704.148917
4776.075213 -16092.710358 -704.364491
4778.034025 -16093.051802 -704.580064
4779.992836 -16093.393247 -704.795638
4781.951648 -16093.734691 -705.011212
4783.910460 -16094.076135 -705.226785
4785.869272 -16094.417580 -705.442359
4787.828084 -16094.759024 -705.657932
4789.786896 -16095.100468 -705.873506
4791.745707 -16095.441912 -706.089079
4793.704519 -16095.783357 -706.304653
4795.663331 -16096.124801 -706.520226
4797.622143 -16096.466245 -706.735800
4799.580955 -16096.807689 -706.951373
4801.539767 -16097.149134 -707.166947
4803.498579 -16097.490578 -707.382520
4805.457390 -16097.832022 -707.598094
4807.416202 -16098.173466 -707.813667
4809.375014 -16098.514911 -708.029241
4811.333826 -16098.856355 -708.244815
4813.292638 -16099.197799 -708.460388
4815.251450 -16099.539244 -708.675962
4817.210262 -16099.880688 -708.891535
4819.169073 -16100.222132 -709.107109
4821.127885 -16100.563576 -709.322682
4823.086697 -16100.905021 -709.538256
4825.045509 -16101.246465 -709.753829
4827.004321 -16101.587909 -709.969403
4828.963133 -16101.929353 -710.184976
4830.921944 -16102.270798 -710.400550
4832.880756 -16102.612242 -710.616123
4834.839568 -16102.953686 -710.831697
4836.798380 -16103.295130 -711.047271
4838.757192 -16103.636575 -711.262844
4840.716004 -16103.978019 -711.478418
4842.674816 -16104.319463 -711.693991
4844.633627 -16104.660908 -711.909565
4846.592439 -16105.002352 -712.125138
4848.551251 -16105.343796 -712.340712
4850.510063 -16105.685240 -712.556285
4852.468875 -16106.026685 -712.771859
4854.427687 -16106.368129 -712.987432
4856.386499 -16106.709573 -713.203006
4858.345310 -16107.051017 -713.418579
4860.304122 -16107.392462 -713.634153
4862.262934 -16107.733906 -713.849726
4864.221746 -16108.075350 -714.065300
4866.180558 -16108.416794 -714.280874
4868.139370 -16108.758239 -714.496447
4870.098181 -16109.099683 -714.712021
4872.056993 -16109.441127 -714.927594
4874.015805 -16109.782572 -715.143168
4875.974617 -16110.124016 -715.358741
4877.933429 -16110.465460 -715.574315
4879.892241 -16110.806904 -715.789888
4881.851053 -16111.148349 -716.005462
4883.809864 -16111.489793 -716.221035
4885.768676 -16111.831237 -716.436609
4887.727488 -16112.172681 -716.652182
4889.686300 -16112.514126 -716.867756
4891.645112 -16112.855570 -717.083329
4893.603924 -16113.197014 -717.298903
4895.562736 -16113.538458 -717.514477
4897.521547 -16113.879903 -717.730050
4899.480359 -16114.221347 -717.945624
4901.439171 -16114.562791 -718.161197
4903.397983 -16114.904236 -718.376771
4905.356795 -16115.245680 -718.592344
4907.315607 -16115.587124 -718.807918
4909.274418 -16115.928568 -719.023491
4911.233230 -16116.270013 -719.239065
4913.192042 -16116.611457 -719.454638
4915.150854 -16116.952901 -719.670212
4917.109666 -16117.294345 -719.885785
4919.068478 -16117.635790 -720.101359
4921.027290 -16117.977234 -720.316932
4922.986101 -16118.318678 -720.532506
4924.944913 -16118.660122 -720.748080
4926.903725 -16119.001567 -720.963653
4928.862537 -16119.343011 -721.179227
4930.821349 -16119.684455 -721.394800
4932.780161 -16120.025900 -721.610374
4934.738973 -16120.367344 -721.825947
4936.697784 -16120.708788 -722.041521
4938.656596 -16121.050232 -722.257094
4940.615408 -16121.391677 -722.472668
4942.574220 -16121.733121 -722.688241
4944.533032 -16122.074565 -722.903815
4946.491844 -16122.416009 -723.119388
4948.450655 -16122.757454 -723.334962
4950.409467 -16123.098898 -723.550536
4952.368279 -16123.440342 -723.766109
4954.327091 -16123.781787 -723.981683
4956.285903 -16124.123231 -724.197256
4958.244715 -16124.464675 -724.412830
4960.203527 -16124.806119 -724.628403
4962.162338 -16125.147564 -724.843977
4964.121150 -16125.489008 -725.059550
4966.079962 -16125.830452 -725.275124
4968.038774 -16126.171896 -725.490697
4969.997586 -16126.513341 -725.706271
4971.956398 -16126.854785 -725.921844
4973.915210 -16127.196229 -726.137418
4975.874021 -16127.537673 -726.352991
4977.832833 -16127.879118 -726.568565
4979.791645 -16128.220562 -726.784139
4981.750457 -16128.562006 -726.999712
4983.709269 -16128.903451 -727.215286
4985.668081 -16129.244895 -727.430859
4987.626892 -16129.586339 -727.646433
4989.585704 -16129.927783 -727.862006
4991.544516 -16130.269228 -728.077580
4993.503328 -16130.610672 -728.293153
4995.462140 -16130.952116 -728.508727
4997.420952 -16131.293560 -728.724300
4999.379764 -16131.635005 -728.939874
5001.338575 -16131.976449 -729.155447
5003.297387 -16132.317893 -729.371021
5005.256199 -16132.659337 -729.586594
