12961.332789 -19947.112824 -1058.268196
12960.404060 -19947.026093 -1060.037359
12959.475330 -19946.939363 -1061.806523
12958.546601 -19946.852632 -1063.575687
12957.617872 -19946.765902 -1065.344850
12956.689143 -19946.679171 -1067.114014
12955.760413 -19946.592441 -1068.883177
12954.831684 -19946.505710 -1070.652341
12953.902955 -19946.418980 -1072.421504
12952.974226 -19946.332249 -1074.190668
12952.045496 -19946.245519 -1075.959832
12951.116767 -19946.158788 -1077.728995
12950.188038 -19946.072058 -1079.498159
12949.259309 -19945.985327 -1081.267322
12948.330579 -19945.898596 -1083.036486
12947.401850 -19945.811866 -1084.805649
12946.473121 -19945.725135 -1086.574813
12945.544392 -19945.638405 -1088.343977
12944.615662 -19945.551674 -1090.113140
12943.686933 -19945.464944 -1091.882304
12942.758204 -19945.378213 -1093.651467
12941.829474 -19945.291483 -1095.420631
12940.900745 -19945.204752 -1097.189795
12939.972016 -19945.118022 -1098.958958
12939.043287 -19945.031291 -1100.728122
12938.114557 -19944.944561 -1102.497285
12937.185828 -19944.857830 -1104.266449
12936.257099 -19944.771099 -1106.035612
12935.328370 -19944.684369 -1107.804776
12934.399640 -19944.597638 -1109.573940
12933.470911 -19944.510908 -1111.343103
12932.542182 -19944.424177 -1113.112267
12931.613453 -19944.337447 -1114.881430
12930.684723 -19944.250716 -1116.650594
12929.755994 -19944.163986 -1118.419757
12928.000000 -19944.000000 -1121.764802
12927.415937 -19945.912601 -1121.793594
12926.831874 -19947.825201 -1121.822386
12926.247811 -19949.737802 -1121.851177
12925.663748 -19951.650403 -1121.879969
12925.079685 -19953.563003 -1121.908761
12924.495622 -19955.475604 -1121.937553
12923.911559 -19957.388205 -1121.966345
12923.327496 -19959.300806 -1121.995137
12922.743433 -19961.213406 -1122.023929
12922.159370 -19963.126007 -1122.052720
12921.575307 -19965.038608 -1122.081512
12920.991244 -19966.951208 -1122.110304
12920.407181 -19968.863809 -1122.139096
12919.823118 -19970.776410 -1122.167888
12919.239055 -19972.689010 -1122.196680
12918.654992 -19974.601611 -1122.225471
12918.070929 -19976.514212 -1122.254263
12917.486866 -19978.426813 -1122.283055
12916.902803 -19980.339413 -1122.311847
12916.318740 -19982.252014 -1122.340639
12915.734677 -19984.164615 -1122.369431
12915.150614 -19986.077215 -1122.398222
12914.566551 -19987.989816 -1122.427014
12913.982488 -19989.902417 -1122.455806
12913.398425 -19991.815017 -1122.484598
12912.814362 -19993.727618 -1122.513390
12912.230299 -19995.640219 -1122.542182
12911.646236 -19997.552820 -1122.570973
12911.062173 -19999.465420 -1122.599765
12910.478110 -20001.378021 -1122.628557
12909.894047 -20003.290622 -1122.657349
12909.309984 -20005.203222 -1122.686141
12908.725921 -20007.115823 -1122.714933
12908.141858 -20009.028424 -1122.743724
12907.557795 -20010.941024 -1122.772516
12906.973732 -20012.853625 -1122.801308
12906.389669 -20014.766226 -1122.830100
12905.805606 -20016.678827 -1122.858892
12905.221543 -20018.591427 -1122.887684
12904.637480 -20020.504028 -1122.916475
12904.053417 -20022.416629 -1122.945267
12903.469354 -20024.329229 -1122.974059
12902.885291 -20026.241830 -1123.002851
12902.301228 -20028.154431 -1123.031643
12901.717165 -20030.067031 -1123.060435
12901.133102 -20031.979632 -1123.089227
12900.549039 -20033.892233 -1123.118018
12899.964976 -20035.804834 -1123.146810
12899.380913 -20037.717434 -1123.175602
12898.796850 -20039.630035 -1123.204394
12898.212787 -20041.542636 -1123.233186
12897.628724 -20043.455236 -1123.261978
12897.044661 -20045.367837 -1123.290769
12896.460598 -20047.280438 -1123.319561
12895.876535 -20049.193038 -1123.348353
12895.292471 -20051.105639 -1123.377145
12894.708408 -20053.018240 -1123.405937
12894.124345 -20054.930841 -1123.434729
12893.540282 -20056.843441 -1123.463520
12892.956219 -20058.756042 -1123.492312
12892.372156 -20060.668643 -1123.521104
12891.788093 -20062.581243 -1123.549896
12891.204030 -20064.493844 -1123.578688
12890.619967 -20066.406445 -1123.607480
12890.035904 -20068.319045 -1123.636271
12889.451841 -20070.231646 -1123.665063
12888.867778 -20072.144247 -1123.693855
12888.283715 -20074.056847 -1123.722647
12887.699652 -20075.969448 -1123.751439
12887.115589 -20077.882049 -1123.780231
12886.531526 -20079.794650 -1123.809022
12885.947463 -20081.707250 -1123.837814
12885.363400 -20083.619851 -1123.866606
12884.779337 -20085.532452 -1123.895398
12884.195274 -20087.445052 -1123.924190
12883.611211 -20089.357653 -1123.952982
12883.027148 -20091.270254 -1123.981774
12882.443085 -20093.182854 -1124.010565
12881.859022 -20095.095455 -1124.039357
12881.274959 -20097.008056 -1124.068149
12880.690896 -20098.920657 -1124.096941
12880.106833 -20100.833257 -1124.125733
12879.522770 -20102.745858 -1124.154525
12878.938707 -20104.658459 -1124.183316
12878.354644 -20106.571059 -1124.212108
12877.770581 -20108.483660 -1124.240900
12877.186518 -20110.396261 -1124.269692
12876.602455 -20112.308861 -1124.298484
12876.018392 -20114.221462 -1124.327276
12875.434329 -20116.134063 -1124.356067
12874.850266 -20118.046664 -1124.384859
12874.266203 -20119.959264 -1124.413651
12873.682140 -20121.871865 -1124.442443
12873.098077 -20123.784466 -1124.471235
12872.514014 -20125.697066 -1124.500027
12871.929951 -20127.609667 -1124.528818
12871.345888 -20129.522268 -1124.557610
12870.761825 -20131.434868 -1124.586402
12870.177762 -20133.347469 -1124.615194
12869.593699 -20135.260070 -1124.643986
12869.009636 -20137.172671 -1124.672778
12868.425573 -20139.085271 -1124.701569
12867.841510 -20140.997872 -1124.730361
12867.257447 -20142.910473 -1124.759153
12866.673384 -20144.823073 -1124.787945
12866.089321 -20146.735674 -1124.816737
12865.505258 -20148.648275 -1124.845529
12864.921195 -20150.560875 -1124.874321
12864.337132 -20152.473476 -1124.903112
12863.753069 -20154.386077 -1124.931904
12863.169006 -20156.298678 -1124.960696
12862.584943 -20158.211278 -1124.989488
12862.000880 -20160.123879 -1125.018280
12861.416817 -20162.036480 -1125.047072
12860.832754 -20163.949080 -1125.075863
12860.248691 -20165.861681 -1125.104655
12859.664628 -20167.774282 -1125.133447
12859.080565 -20169.686882 -1125.162239
12858.496502 -20171.599483 -1125.191031
12857.912439 -20173.512084 -1125.219823
12857.328376 -20175.424685 -1125.248614
12856.744313 -20177.337285 -1125.277406
12856.160250 -20179.249886 -1125.306198
12855.576187 -20181.162487 -1125.334990
12854.992124 -20183.075087 -1125.363782
12854.408061 -20184.987688 -1125.392574
12853.823998 -20186.900289 -1125.421365
12853.239935 -20188.812889 -1125.450157
12852.655872 -20190.725490 -1125.478949
12852.071809 -20192.638091 -1125.507741
12851.487746 -20194.550691 -1125.536533
12850.903683 -20196.463292 -1125.565325
12850.319620 -20198.375893 -1125.594116
12849.735557 -20200.288494 -1125.622908
12849.151494 -20202.201094 -1125.651700
12848.567431 -20204.113695 -1125.680492
12847.983368 -20206.026296 -1125.709284
12847.399305 -20207.938896 -1125.738076
12846.815242 -20209.851497 -1125.766868
12846.231179 -20211.764098 -1125.795659
12845.647116 -20213.676698 -1125.824451
12845.063053 -20215.589299 -1125.853243
12844.478990 -20217.501900 -1125.882035
12843.894927 -20219.414501 -1125.910827
12843.310864 -20221.327101 -1125.939619
12842.726801 -20223.239702 -1125.968410
12842.142738 -20225.152303 -1125.997202
12841.558675 -20227.064903 -1126.025994
12840.974612 -20228.977504 -1126.054786
12840.390549 -20230.890105 -1126.083578
12839.806486 -20232.802705 -1126.112370
12839.222423 -20234.715306 -1126.141161
12838.638360 -20236.627907 -1126.169953
12838.054297 -20238.540508 -1126.198745
12837.470234 -20240.453108 -1126.227537
12836.886171 -20242.365709 -1126.256329
12836.302108 -20244.278310 -1126.285121
12835.718045 -20246.190910 -1126.313912
12835.133982 -20248.103511 -1126.342704
12834.549919 -20250.016112 -1126.371496
12833.965856 -20251.928712 -1126.400288
12833.381793 -20253.841313 -1126.429080
12832.797730 -20255.753914 -1126.457872
12832.213667 -20257.666515 -1126.486663
12831.629604 -20259.579115 -1126.515455
12831.045541 -20261.491716 -1126.544247
12830.461478 -20263.404317 -1126.573039
12829.877414 -20265.316917 -1126.601831
12829.293351 -20267.229518 -1126.630623
12828.709288 -20269.142119 -1126.659415
12828.125225 -20271.054719 -1126.688206
12827.541162 -20272.967320 -1126.716998
12826.957099 -20274.879921 -1126.745790
12826.373036 -20276.792522 -1126.774582
12825.788973 -20278.705122 -1126.803374
12825.204910 -20280.617723 -1126.832166
12824.620847 -20282.530324 -1126.860957
12824.036784 -20284.442924 -1126.889749
12823.452721 -20286.355525 -1126.918541
12822.868658 -20288.268126 -1126.947333
12822.284595 -20290.180726 -1126.976125
12821.700532 -20292.093327 -1127.004917
12821.116469 -20294.005928 -1127.033708
12820.532406 -20295.918529 -1127.062500
12819.948343 -20297.831129 -1127.091292
12819.364280 -20299.743730 -1127.120084
12818.780217 -20301.656331 -1127.148876
12818.196154 -20303.568931 -1127.177668
12817.612091 -20305.481532 -1127.206459
12817.028028 -20307.394133 -1127.235251
12816.443965 -20309.306733 -1127.264043
12815.859902 -20311.219334 -1127.292835
12815.275839 -20313.131935 -1127.321627
12814.691776 -20315.044535 -1127.350419
12814.107713 -20316.957136 -1127.379210
12813.523650 -20318.869737 -1127.408002
12812.939587 -20320.782338 -1127.436794
12812.355524 -20322.694938 -1127.465586
12811.771461 -20324.607539 -1127.494378
12811.187398 -20326.520140 -1127.523170
12810.603335 -20328.432740 -1127.551961
12810.019272 -20330.345341 -1127.580753
12809.435209 -20332.257942 -1127.609545
12808.851146 -20334.170542 -1127.638337
12808.267083 -20336.083143 -1127.667129
12807.683020 -20337.995744 -1127.695921
12807.098957 -20339.908345 -1127.724713
12806.514894 -20341.820945 -1127.753504
12805.930831 -20343.733546 -1127.782296
12805.346768 -20345.646147 -1127.811088
12804.762705 -20347.558747 -1127.839880
12804.178642 -20349.471348 -1127.868672
12803.594579 -20351.383949 -1127.897464
12803.010516 -20353.296549 -1127.926255
12802.426453 -20355.209150 -1127.955047
12801.842390 -20357.121751 -1127.983839
12801.258327 -20359.034352 -1128.012631
12800.674264 -20360.946952 -1128.041423
12800.090201 -20362.859553 -1128.070215
12799.506138 -20364.772154 -1128.099006
12798.922075 -20366.684754 -1128.127798
12798.338012 -20368.597355 -1128.156590
12797.753949 -20370.509956 -1128.185382
12797.169886 -20372.422556 -1128.214174
12796.585823 -20374.335157 -1128.242966
12796.001760 -20376.247758 -1128.271757
12795.417697 -20378.160359 -1128.300549
12794.833634 -20380.072959 -1128.329341
12794.249571 -20381.985560 -1128.358133
12793.665508 -20383.898161 -1128.386925
12793.081445 -20385.810761 -1128.415717
12792.497382 -20387.723362 -1128.444508
12791.913319 -20389.635963 -1128.473300
12791.329256 -20391.548563 -1128.502092
12790.745193 -20393.461164 -1128.530884
12790.161130 -20395.373765 -1128.559676
12789.577067 -20397.286366 -1128.588468
12788.993004 -20399.198966 -1128.617260
12788.408941 -20401.111567 -1128.646051
12787.824878 -20403.024168 -1128.674843
12787.240815 -20404.936768 -1128.703635
12786.656752 -20406.849369 -1128.732427
12786.072689 -20408.761970 -1128.761219
12785.488626 -20410.674570 -1128.790011
12784.904563 -20412.587171 -1128.818802
12784.320500 -20414.499772 -1128.847594
12783.736437 -20416.412373 -1128.876386
12783.152374 -20418.324973 -1128.905178
12782.568311 -20420.237574 -1128.933970
12781.984248 -20422.150175 -1128.962762
12781.400185 -20424.062775 -1128.991553
12780.816122 -20425.975376 -1129.020345
12780.232059 -20427.887977 -1129.049137
12779.647996 -20429.800577 -1129.077929
12779.063933 -20431.713178 -1129.106721
12778.479870 -20433.625779 -1129.135513
12777.895807 -20435.538379 -1129.164304
12777.311744 -20437.450980 -1129.193096
12776.727681 -20439.363581 -1129.221888
12776.143618 -20441.276182 -1129.250680
12775.559555 -20443.188782 -1129.279472
12774.975492 -20445.101383 -1129.308264
12774.391429 -20447.013984 -1129.337055
12773.807366 -20448.926584 -1129.365847
12773.223303 -20450.839185 -1129.394639
12772.639240 -20452.751786 -1129.423431
12772.055177 -20454.664386 -1129.452223
12771.471114 -20456.576987 -1129.481015
12770.887051 -20458.489588 -1129.509807
12770.302988 -20460.402189 -1129.538598
12769.718925 -20462.314789 -1129.567390
12769.134862 -20464.227390 -1129.596182
12768.550799 -20466.139991 -1129.624974
12767.966736 -20468.052591 -1129.653766
12767.382673 -20469.965192 -1129.682558
12766.798610 -20471.877793 -1129.711349
12766.214547 -20473.790393 -1129.740141
12765.630484 -20475.702994 -1129.768933
12765.046420 -20477.615595 -1129.797725
12764.462357 -20479.528196 -1129.826517
12763.878294 -20481.440796 -1129.855309
12763.294231 -20483.353397 -1129.884100
12762.710168 -20485.265998 -1129.912892
12762.126105 -20487.178598 -1129.941684
12761.542042 -20489.091199 -1129.970476
12760.957979 -20491.003800 -1129.999268
12760.373916 -20492.916400 -1130.028060
12759.789853 -20494.829001 -1130.056851
12759.205790 -20496.741602 -1130.085643
12758.621727 -20498.654203 -1130.114435
12758.037664 -20500.566803 -1130.143227
12757.453601 -20502.479404 -1130.172019
12756.869538 -20504.392005 -1130.200811
12756.285475 -20506.304605 -1130.229602
12755.701412 -20508.217206 -1130.258394
12755.117349 -20510.129807 -1130.287186
12754.533286 -20512.042407 -1130.315978
12753.949223 -20513.955008 -1130.344770
12753.365160 -20515.867609 -1130.373562
12752.781097 -20517.780210 -1130.402354
12752.197034 -20519.692810 -1130.431145
12751.612971 -20521.605411 -1130.459937
12751.028908 -20523.518012 -1130.488729
12750.444845 -20525.430612 -1130.517521
12749.860782 -20527.343213 -1130.546313
12749.276719 -20529.255814 -1130.575105
12748.692656 -20531.168414 -1130.603896
12748.108593 -20533.081015 -1130.632688
12747.524530 -20534.993616 -1130.661480
12746.940467 -20536.906217 -1130.690272
12746.356404 -20538.818817 -1130.719064
12745.772341 -20540.731418 -1130.747856
12745.188278 -20542.644019 -1130.776647
12744.604215 -20544.556619 -1130.805439
12744.020152 -20546.469220 -1130.834231
12743.436089 -20548.381821 -1130.863023
12742.852026 -20550.294421 -1130.891815
12742.267963 -20552.207022 -1130.920607
12741.683900 -20554.119623 -1130.949398
12741.099837 -20556.032223 -1130.978190
12740.515774 -20557.944824 -1131.006982
12739.931711 -20559.857425 -1131.035774
12739.347648 -20561.770026 -1131.064566
12738.763585 -20563.682626 -1131.093358
12738.179522 -20565.595227 -1131.122149
12737.595459 -20567.507828 -1131.150941
12737.011396 -20569.420428 -1131.179733
12736.427333 -20571.333029 -1131.208525
12735.843270 -20573.245630 -1131.237317
12735.259207 -20575.158230 -1131.266109
12734.675144 -20577.070831 -1131.294900
12734.091081 -20578.983432 -1131.323692
12733.507018 -20580.896033 -1131.352484
12732.922955 -20582.808633 -1131.381276
12732.338892 -20584.721234 -1131.410068
12731.754829 -20586.633835 -1131.438860
12731.170766 -20588.546435 -1131.467652
12730.586703 -20590.459036 -1131.496443
12730.002640 -20592.371637 -1131.525235
12729.418577 -20594.284237 -1131.554027
12728.834514 -20596.196838 -1131.582819
12728.250451 -20598.109439 -1131.611611
12727.666388 -20600.022040 -1131.640403
12727.082325 -20601.934640 -1131.669194
12726.498262 -20603.847241 -1131.697986
12725.914199 -20605.759842 -1131.726778
12725.330136 -20607.672442 -1131.755570
12724.746073 -20609.585043 -1131.784362
12724.162010 -20611.497644 -1131.813154
12723.577947 -20613.410244 -1131.841945
12722.993884 -20615.322845 -1131.870737
12722.409821 -20617.235446 -1131.899529
12721.825758 -20619.148047 -1131.928321
12721.241695 -20621.060647 -1131.957113
12720.657632 -20622.973248 -1131.985905
12720.073569 -20624.885849 -1132.014696
12719.489506 -20626.798449 -1132.043488
12718.905443 -20628.711050 -1132.072280
12718.321380 -20630.623651 -1132.101072
12717.737317 -20632.536251 -1132.129864
12717.153254 -20634.448852 -1132.158656
12716.569191 -20636.361453 -1132.187447
12715.985128 -20638.274054 -1132.216239
12715.401065 -20640.186654 -1132.245031
12714.817002 -20642.099255 -1132.273823
12714.232939 -20644.011856 -1132.302615
12713.648876 -20645.924456 -1132.331407
12713.064813 -20647.837057 -1132.360199
12712.480750 -20649.749658 -1132.388990
12711.896687 -20651.662258 -1132.417782
12711.312624 -20653.574859 -1132.446574
12710.728561 -20655.487460 -1132.475366
12710.144498 -20657.400061 -1132.504158
12709.560435 -20659.312661 -1132.532950
12708.976372 -20661.225262 -1132.561741
12708.392309 -20663.137863 -1132.590533
12707.808246 -20665.050463 -1132.619325
12707.224183 -20666.963064 -1132.648117
12706.640120 -20668.875665 -1132.676909
12706.056057 -20670.788265 -1132.705701
12705.471994 -20672.700866 -1132.734492
12704.887931 -20674.613467 -1132.763284
12704.303868 -20676.526067 -1132.792076
12703.719805 -20678.438668 -1132.820868
12703.135742 -20680.351269 -1132.849660
12702.551679 -20682.263870 -1132.878452
12701.967616 -20684.176470 -1132.907243
12701.383553 -20686.089071 -1132.936035
12700.799490 -20688.001672 -1132.964827
12700.215426 -20689.914272 -1132.993619
12699.631363 -20691.826873 -1133.022411
12699.047300 -20693.739474 -1133.051203
12698.463237 -20695.652074 -1133.079994
12697.879174 -20697.564675 -1133.108786
12697.295111 -20699.477276 -1133.137578
12696.711048 -20701.389877 -1133.166370
12696.126985 -20703.302477 -1133.195162
12695.542922 -20705.215078 -1133.223954
12694.958859 -20707.127679 -1133.252746
12694.374796 -20709.040279 -1133.281537
12693.790733 -20710.952880 -1133.310329
12693.206670 -20712.865481 -1133.339121
12692.622607 -20714.778081 -1133.367913
12692.038544 -20716.690682 -1133.396705
12691.454481 -20718.603283 -1133.425497
12690.870418 -20720.515884 -1133.454288
12690.286355 -20722.428484 -1133.483080
12689.702292 -20724.341085 -1133.511872
12689.118229 -20726.253686 -1133.540664
12688.534166 -20728.166286 -1133.569456
12687.950103 -20730.078887 -1133.598248
12687.366040 -20731.991488 -1133.627039
12686.781977 -20733.904088 -1133.655831
12686.197914 -20735.816689 -1133.684623
12685.613851 -20737.729290 -1133.713415
12685.029788 -20739.641891 -1133.742207
12684.445725 -20741.554491 -1133.770999
12683.861662 -20743.467092 -1133.799790
12683.277599 -20745.379693 -1133.828582
12682.693536 -20747.292293 -1133.857374
12682.109473 -20749.204894 -1133.886166
12681.525410 -20751.117495 -1133.914958
12680.941347 -20753.030095 -1133.943750
12680.357284 -20754.942696 -1133.972541
12679.773221 -20756.855297 -1134.001333
12679.189158 -20758.767898 -1134.030125
12678.605095 -20760.680498 -1134.058917
12678.021032 -20762.593099 -1134.087709
12677.436969 -20764.505700 -1134.116501
12676.852906 -20766.418300 -1134.145293
12676.268843 -20768.330901 -1134.174084
12675.684780 -20770.243502 -1134.202876
12675.100717 -20772.156102 -1134.231668
12674.516654 -20774.068703 -1134.260460
12673.932591 -20775.981304 -1134.289252
12673.348528 -20777.893905 -1134.318044
12672.764465 -20779.806505 -1134.346835
12672.180402 -20781.719106 -1134.375627
12671.596339 -20783.631707 -1134.404419
12671.012276 -20785.544307 -1134.433211
12670.428213 -20787.456908 -1134.462003
12669.844150 -20789.369509 -1134.490795
12669.260087 -20791.282109 -1134.519586
12668.676024 -20793.194710 -1134.548378
12668.091961 -20795.107311 -1134.577170
12667.507898 -20797.019911 -1134.605962
12666.923835 -20798.932512 -1134.634754
12666.339772 -20800.845113 -1134.663546
12665.755709 -20802.757714 -1134.692337
12665.171646 -20804.670314 -1134.721129
12664.587583 -20806.582915 -1134.749921
12664.003520 -20808.495516 -1134.778713
12663.419457 -20810.408116 -1134.807505
12662.835394 -20812.320717 -1134.836297
12662.251331 -20814.233318 -1134.865088
12661.667268 -20816.145918 -1134.893880
12661.083205 -20818.058519 -1134.922672
12660.499142 -20819.971120 -1134.951464
12659.915079 -20821.883721 -1134.980256
12659.331016 -20823.796321 -1135.009048
12658.746953 -20825.708922 -1135.037839
12658.162890 -20827.621523 -1135.066631
12657.578827 -20829.534123 -1135.095423
12656.994764 -20831.446724 -1135.124215
12656.410701 -20833.359325 -1135.153007
12655.826638 -20835.271925 -1135.181799
12655.242575 -20837.184526 -1135.210591
12654.658512 -20839.097127 -1135.239382
12654.074449 -20841.009728 -1135.268174
12653.490386 -20842.922328 -1135.296966
12652.906323 -20844.834929 -1135.325758
12652.322260 -20846.747530 -1135.354550
12651.738197 -20848.660130 -1135.383342
12651.154134 -20850.572731 -1135.412133
12650.570071 -20852.485332 -1135.440925
12649.986008 -20854.397932 -1135.469717
12649.401945 -20856.310533 -1135.498509
12648.817882 -20858.223134 -1135.527301
12648.233819 -20860.135735 -1135.556093
12647.649756 -20862.048335 -1135.584884
12647.065693 -20863.960936 -1135.613676
12646.481630 -20865.873537 -1135.642468
12645.897567 -20867.786137 -1135.671260
12645.313504 -20869.698738 -1135.700052
12644.729441 -20871.611339 -1135.728844
12644.000000 -20874.000000 -1135.764802
12643.576586 -20872.045334 -1135.764802
12643.153171 -20870.090667 -1135.764802
12642.729757 -20868.136001 -1135.764802
12642.306343 -20866.181335 -1135.764802
12641.882928 -20864.226669 -1135.764802
12641.459514 -20862.272002 -1135.764802
12641.036099 -20860.317336 -1135.764802
12640.612685 -20858.362670 -1135.764802
12640.189271 -20856.408003 -1135.764802
12639.765856 -20854.453337 -1135.764802
12639.342442 -20852.498671 -1135.764802
12638.919028 -20850.544005 -1135.764802
12638.495613 -20848.589338 -1135.764802
12638.072199 -20846.634672 -1135.764802
12637.648785 -20844.680006 -1135.764802
12637.225370 -20842.725339 -1135.764802
12636.801956 -20840.770673 -1135.764802
12636.378542 -20838.816007 -1135.764802
12635.955127 -20836.861341 -1135.764802
12635.531713 -20834.906674 -1135.764802
12635.108298 -20832.952008 -1135.764802
12634.684884 -20830.997342 -1135.764802
12634.261470 -20829.042675 -1135.764802
12633.838055 -20827.088009 -1135.764802
12633.414641 -20825.133343 -1135.764802
12632.991227 -20823.178677 -1135.764802
12632.567812 -20821.224010 -1135.764802
12632.144398 -20819.269344 -1135.764802
12631.720984 -20817.314678 -1135.764802
12631.297569 -20815.360011 -1135.764802
12630.874155 -20813.405345 -1135.764802
12630.450741 -20811.450679 -1135.764802
12630.027326 -20809.496013 -1135.764802
12629.603912 -20807.541346 -1135.764802
12629.180497 -20805.586680 -1135.764802
12628.757083 -20803.632014 -1135.764802
12628.333669 -20801.677347 -1135.764802
12627.910254 -20799.722681 -1135.764802
12627.486840 -20797.768015 -1135.764802
12627.063426 -20795.813349 -1135.764802
12626.640011 -20793.858682 -1135.764802
12626.216597 -20791.904016 -1135.764802
12625.793183 -20789.949350 -1135.764802
12625.369768 -20787.994684 -1135.764802
12624.946354 -20786.040017 -1135.764802
12624.522940 -20784.085351 -1135.764802
12624.099525 -20782.130685 -1135.764802
12623.676111 -20780.176018 -1135.764802
12623.252696 -20778.221352 -1135.764802
12622.829282 -20776.266686 -1135.764802
12622.405868 -20774.312020 -1135.764802
12621.982453 -20772.357353 -1135.764802
12621.559039 -20770.402687 -1135.764802
12621.135625 -20768.448021 -1135.764802
12620.712210 -20766.493354 -1135.764802
12620.288796 -20764.538688 -1135.764802
12619.865382 -20762.584022 -1135.764802
12619.441967 -20760.629356 -1135.764802
12619.018553 -20758.674689 -1135.764802
12618.595139 -20756.720023 -1135.764802
12618.171724 -20754.765357 -1135.764802
12617.748310 -20752.810690 -1135.764802
12617.324895 -20750.856024 -1135.764802
12616.901481 -20748.901358 -1135.764802
12616.478067 -20746.946692 -1135.764802
12616.054652 -20744.992025 -1135.764802
12615.631238 -20743.037359 -1135.764802
12615.207824 -20741.082693 -1135.764802
12614.784409 -20739.128026 -1135.764802
12614.360995 -20737.173360 -1135.764802
12613.937581 -20735.218694 -1135.764802
12613.514166 -20733.264028 -1135.764802
12613.090752 -20731.309361 -1135.764802
12612.667337 -20729.354695 -1135.764802
12612.243923 -20727.400029 -1135.764802
12611.820509 -20725.445362 -1135.764802
12611.397094 -20723.490696 -1135.764802
12610.973680 -20721.536030 -1135.764802
12610.550266 -20719.581364 -1135.764802
12610.126851 -20717.626697 -1135.764802
12609.703437 -20715.672031 -1135.764802
12609.280023 -20713.717365 -1135.764802
12608.856608 -20711.762698 -1135.764802
12608.433194 -20709.808032 -1135.764802
12608.009780 -20707.853366 -1135.764802
12607.586365 -20705.898700 -1135.764802
12607.162951 -20703.944033 -1135.764802
12606.739536 -20701.989367 -1135.764802
12606.316122 -20700.034701 -1135.764802
12605.892708 -20698.080034 -1135.764802
12605.469293 -20696.125368 -1135.764802
12605.045879 -20694.170702 -1135.764802
12604.622465 -20692.216036 -1135.764802
12604.199050 -20690.261369 -1135.764802
12603.775636 -20688.306703 -1135.764802
12603.352222 -20686.352037 -1135.764802
12602.928807 -20684.397370 -1135.764802
12602.505393 -20682.442704 -1135.764802
12602.081979 -20680.488038 -1135.764802
12601.658564 -20678.533372 -1135.764802
12601.235150 -20676.578705 -1135.764802
12600.811735 -20674.624039 -1135.764802
12600.388321 -20672.669373 -1135.764802
12599.964907 -20670.714706 -1135.764802
12599.541492 -20668.760040 -1135.764802
12599.118078 -20666.805374 -1135.764802
12598.694664 -20664.850708 -1135.764802
12598.271249 -20662.896041 -1135.764802
12597.847835 -20660.941375 -1135.764802
12597.424421 -20658.986709 -1135.764802
12597.001006 -20657.032042 -1135.764802
12596.577592 -20655.077376 -1135.764802
12596.154178 -20653.122710 -1135.764802
12595.730763 -20651.168044 -1135.764802
12595.307349 -20649.213377 -1135.764802
12594.883934 -20647.258711 -1135.764802
12594.460520 -20645.304045 -1135.764802
12594.037106 -20643.349379 -1135.764802
12593.613691 -20641.394712 -1135.764802
12593.190277 -20639.440046 -1135.764802
12592.766863 -20637.485380 -1135.764802
12592.343448 -20635.530713 -1135.764802
12591.920034 -20633.576047 -1135.764802
12591.496620 -20631.621381 -1135.764802
12591.073205 -20629.666715 -1135.764802
12590.649791 -20627.712048 -1135.764802
12590.226377 -20625.757382 -1135.764802
12589.802962 -20623.802716 -1135.764802
12589.379548 -20621.848049 -1135.764802
12588.956133 -20619.893383 -1135.764802
12588.532719 -20617.938717 -1135.764802
12588.109305 -20615.984051 -1135.764802
12587.685890 -20614.029384 -1135.764802
12587.262476 -20612.074718 -1135.764802
12586.839062 -20610.120052 -1135.764802
12586.415647 -20608.165385 -1135.764802
12585.992233 -20606.210719 -1135.764802
12585.568819 -20604.256053 -1135.764802
12585.145404 -20602.301387 -1135.764802
12584.721990 -20600.346720 -1135.764802
12584.298575 -20598.392054 -1135.764802
12583.875161 -20596.437388 -1135.764802
12583.451747 -20594.482721 -1135.764802
12583.028332 -20592.528055 -1135.764802
12582.604918 -20590.573389 -1135.764802
12582.181504 -20588.618723 -1135.764802
12581.758089 -20586.664056 -1135.764802
12581.334675 -20584.709390 -1135.764802
12580.911261 -20582.754724 -1135.764802
12580.487846 -20580.800057 -1135.764802
12580.064432 -20578.845391 -1135.764802
12579.641018 -20576.890725 -1135.764802
12579.217603 -20574.936059 -1135.764802
12578.794189 -20572.981392 -1135.764802
12578.370774 -20571.026726 -1135.764802
12577.947360 -20569.072060 -1135.764802
12577.523946 -20567.117393 -1135.764802
12577.100531 -20565.162727 -1135.764802
12576.677117 -20563.208061 -1135.764802
12576.253703 -20561.253395 -1135.764802
12575.830288 -20559.298728 -1135.764802
12575.406874 -20557.344062 -1135.764802
12574.983460 -20555.389396 -1135.764802
12574.560045 -20553.434729 -1135.764802
12574.136631 -20551.480063 -1135.764802
12573.713217 -20549.525397 -1135.764802
12573.289802 -20547.570731 -1135.764802
12572.866388 -20545.616064 -1135.764802
12572.442973 -20543.661398 -1135.764802
12572.019559 -20541.706732 -1135.764802
12571.596145 -20539.752065 -1135.764802
12571.172730 -20537.797399 -1135.764802
12570.749316 -20535.842733 -1135.764802
12570.325902 -20533.888067 -1135.764802
12569.902487 -20531.933400 -1135.764802
12569.479073 -20529.978734 -1135.764802
12569.055659 -20528.024068 -1135.764802
12568.632244 -20526.069401 -1135.764802
12568.208830 -20524.114735 -1135.764802
12567.785416 -20522.160069 -1135.764802
12567.362001 -20520.205403 -1135.764802
12566.938587 -20518.250736 -1135.764802
12566.515172 -20516.296070 -1135.764802
12566.091758 -20514.341404 -1135.764802
12565.668344 -20512.386737 -1135.764802
12565.244929 -20510.432071 -1135.764802
12564.821515 -20508.477405 -1135.764802
12564.398101 -20506.522739 -1135.764802
12563.974686 -20504.568072 -1135.764802
12563.551272 -20502.613406 -1135.764802
12563.127858 -20500.658740 -1135.764802
12562.704443 -20498.704073 -1135.764802
12562.281029 -20496.749407 -1135.764802
12561.857615 -20494.794741 -1135.764802
12561.434200 -20492.840075 -1135.764802
12561.010786 -20490.885408 -1135.764802
12560.587371 -20488.930742 -1135.764802
12560.163957 -20486.976076 -1135.764802
12559.740543 -20485.021410 -1135.764802
12559.317128 -20483.066743 -1135.764802
12558.893714 -20481.112077 -1135.764802
12558.470300 -20479.157411 -1135.764802
12558.046885 -20477.202744 -1135.764802
12557.623471 -20475.248078 -1135.764802
12557.200057 -20473.293412 -1135.764802
12556.776642 -20471.338746 -1135.764802
12556.353228 -20469.384079 -1135.764802
12555.929813 -20467.429413 -1135.764802
12555.506399 -20465.474747 -1135.764802
12555.082985 -20463.520080 -1135.764802
12554.659570 -20461.565414 -1135.764802
12554.236156 -20459.610748 -1135.764802
12553.812742 -20457.656082 -1135.764802
12553.389327 -20455.701415 -1135.764802
12552.965913 -20453.746749 -1135.764802
12552.542499 -20451.792083 -1135.764802
12552.119084 -20449.837416 -1135.764802
12551.695670 -20447.882750 -1135.764802
12551.272256 -20445.928084 -1135.764802
12550.848841 -20443.973418 -1135.764802
12550.425427 -20442.018751 -1135.764802
12550.002012 -20440.064085 -1135.764802
12549.578598 -20438.109419 -1135.764802
12549.155184 -20436.154752 -1135.764802
12548.731769 -20434.200086 -1135.764802
12548.308355 -20432.245420 -1135.764802
12547.884941 -20430.290754 -1135.764802
12547.461526 -20428.336087 -1135.764802
12547.038112 -20426.381421 -1135.764802
12546.614698 -20424.426755 -1135.764802
12546.191283 -20422.472088 -1135.764802
12545.767869 -20420.517422 -1135.764802
12545.344455 -20418.562756 -1135.764802
12544.921040 -20416.608090 -1135.764802
12544.497626 -20414.653423 -1135.764802
12544.074211 -20412.698757 -1135.764802
12543.650797 -20410.744091 -1135.764802
12543.227383 -20408.789424 -1135.764802
12542.803968 -20406.834758 -1135.764802
12542.380554 -20404.880092 -1135.764802
12541.957140 -20402.925426 -1135.764802
12541.533725 -20400.970759 -1135.764802
12541.110311 -20399.016093 -1135.764802
12540.686897 -20397.061427 -1135.764802
12540.263482 -20395.106760 -1135.764802
12539.840068 -20393.152094 -1135.764802
12539.416654 -20391.197428 -1135.764802
12538.993239 -20389.242762 -1135.764802
12538.569825 -20387.288095 -1135.764802
12538.146410 -20385.333429 -1135.764802
12537.722996 -20383.378763 -1135.764802
12537.299582 -20381.424096 -1135.764802
12536.876167 -20379.469430 -1135.764802
12536.452753 -20377.514764 -1135.764802
12536.029339 -20375.560098 -1135.764802
12535.605924 -20373.605431 -1135.764802
12535.182510 -20371.650765 -1135.764802
12534.759096 -20369.696099 -1135.764802
12534.335681 -20367.741432 -1135.764802
12533.912267 -20365.786766 -1135.764802
12533.488853 -20363.832100 -1135.764802
12533.065438 -20361.877434 -1135.764802
12532.642024 -20359.922767 -1135.764802
12532.218609 -20357.968101 -1135.764802
12531.795195 -20356.013435 -1135.764802
12531.371781 -20354.058768 -1135.764802
12530.948366 -20352.104102 -1135.764802
12530.524952 -20350.149436 -1135.764802
12530.101538 -20348.194770 -1135.764802
12529.678123 -20346.240103 -1135.764802
12529.254709 -20344.285437 -1135.764802
12528.831295 -20342.330771 -1135.764802
12528.407880 -20340.376105 -1135.764802
12527.984466 -20338.421438 -1135.764802
12527.561051 -20336.466772 -1135.764802
12527.137637 -20334.512106 -1135.764802
12526.714223 -20332.557439 -1135.764802
12526.290808 -20330.602773 -1135.764802
12525.867394 -20328.648107 -1135.764802
12525.443980 -20326.693441 -1135.764802
12525.020565 -20324.738774 -1135.764802
12524.597151 -20322.784108 -1135.764802
12524.173737 -20320.829442 -1135.764802
12523.750322 -20318.874775 -1135.764802
12523.326908 -20316.920109 -1135.764802
12522.903494 -20314.965443 -1135.764802
12522.480079 -20313.010777 -1135.764802
12522.056665 -20311.056110 -1135.764802
12521.633250 -20309.101444 -1135.764802
12521.209836 -20307.146778 -1135.764802
12520.786422 -20305.192111 -1135.764802
12520.363007 -20303.237445 -1135.764802
12519.939593 -20301.282779 -1135.764802
12519.516179 -20299.328113 -1135.764802
12519.092764 -20297.373446 -1135.764802
12518.669350 -20295.418780 -1135.764802
12518.245936 -20293.464114 -1135.764802
12517.822521 -20291.509447 -1135.764802
12517.399107 -20289.554781 -1135.764802
12516.975693 -20287.600115 -1135.764802
12516.552278 -20285.645449 -1135.764802
12516.128864 -20283.690782 -1135.764802
12515.705449 -20281.736116 -1135.764802
12515.282035 -20279.781450 -1135.764802
12514.858621 -20277.826783 -1135.764802
12514.435206 -20275.872117 -1135.764802
12514.011792 -20273.917451 -1135.764802
12513.588378 -20271.962785 -1135.764802
12513.164963 -20270.008118 -1135.764802
12512.741549 -20268.053452 -1135.764802
12512.318135 -20266.098786 -1135.764802
12511.894720 -20264.144119 -1135.764802
12511.471306 -20262.189453 -1135.764802
12511.047892 -20260.234787 -1135.764802
12510.624477 -20258.280121 -1135.764802
12510.201063 -20256.325454 -1135.764802
12509.777648 -20254.370788 -1135.764802
12509.354234 -20252.416122 -1135.764802
12508.930820 -20250.461455 -1135.764802
12508.507405 -20248.506789 -1135.764802
12508.083991 -20246.552123 -1135.764802
12507.660577 -20244.597457 -1135.764802
12507.237162 -20242.642790 -1135.764802
12506.813748 -20240.688124 -1135.764802
12506.390334 -20238.733458 -1135.764802
12505.966919 -20236.778791 -1135.764802
12505.543505 -20234.824125 -1135.764802
12505.120091 -20232.869459 -1135.764802
12504.696676 -20230.914793 -1135.764802
12504.273262 -20228.960126 -1135.764802
12503.849847 -20227.005460 -1135.764802
12503.426433 -20225.050794 -1135.764802
12503.003019 -20223.096127 -1135.764802
12502.579604 -20221.141461 -1135.764802
12502.156190 -20219.186795 -1135.764802
12501.732776 -20217.232129 -1135.764802
12501.309361 -20215.277462 -1135.764802
12500.885947 -20213.322796 -1135.764802
12500.462533 -20211.368130 -1135.764802
12500.039118 -20209.413463 -1135.764802
12499.615704 -20207.458797 -1135.764802
12499.192289 -20205.504131 -1135.764802
12498.768875 -20203.549465 -1135.764802
12498.345461 -20201.594798 -1135.764802
12497.922046 -20199.640132 -1135.764802
12497.498632 -20197.685466 -1135.764802
12497.075218 -20195.730800 -1135.764802
12496.651803 -20193.776133 -1135.764802
12496.228389 -20191.821467 -1135.764802
12495.804975 -20189.866801 -1135.764802
12495.381560 -20187.912134 -1135.764802
12494.958146 -20185.957468 -1135.764802
12494.534732 -20184.002802 -1135.764802
12494.111317 -20182.048136 -1135.764802
12493.687903 -20180.093469 -1135.764802
12493.264488 -20178.138803 -1135.764802
12492.841074 -20176.184137 -1135.764802
12492.417660 -20174.229470 -1135.764802
12491.994245 -20172.274804 -1135.764802
12491.570831 -20170.320138 -1135.764802
12491.147417 -20168.365472 -1135.764802
12490.724002 -20166.410805 -1135.764802
12490.300588 -20164.456139 -1135.764802
12489.877174 -20162.501473 -1135.764802
12489.453759 -20160.546806 -1135.764802
12489.030345 -20158.592140 -1135.764802
12488.606931 -20156.637474 -1135.764802
12488.183516 -20154.682808 -1135.764802
12487.760102 -20152.728141 -1135.764802
12487.336687 -20150.773475 -1135.764802
12486.913273 -20148.818809 -1135.764802
12486.489859 -20146.864142 -1135.764802
12486.066444 -20144.909476 -1135.764802
12485.643030 -20142.954810 -1135.764802
12485.219616 -20141.000144 -1135.764802
12484.796201 -20139.045477 -1135.764802
12484.372787 -20137.090811 -1135.764802
12483.949373 -20135.136145 -1135.764802
12483.525958 -20133.181478 -1135.764802
12483.102544 -20131.226812 -1135.764802
12482.679130 -20129.272146 -1135.764802
12482.255715 -20127.317480 -1135.764802
12481.832301 -20125.362813 -1135.764802
12481.408886 -20123.408147 -1135.764802
12480.985472 -20121.453481 -1135.764802
12480.562058 -20119.498814 -1135.764802
12480.138643 -20117.544148 -1135.764802
12479.715229 -20115.589482 -1135.764802
12479.291815 -20113.634816 -1135.764802
12478.868400 -20111.680149 -1135.764802
12478.444986 -20109.725483 -1135.764802
12478.021572 -20107.770817 -1135.764802
12477.598157 -20105.816150 -1135.764802
12477.174743 -20103.861484 -1135.764802
12476.751329 -20101.906818 -1135.764802
12476.327914 -20099.952152 -1135.764802
12475.904500 -20097.997485 -1135.764802
12475.481085 -20096.042819 -1135.764802
12475.057671 -20094.088153 -1135.764802
12474.634257 -20092.133486 -1135.764802
12474.210842 -20090.178820 -1135.764802
12473.787428 -20088.224154 -1135.764802
12473.364014 -20086.269488 -1135.764802
12472.940599 -20084.314821 -1135.764802
12472.517185 -20082.360155 -1135.764802
12472.093771 -20080.405489 -1135.764802
12471.670356 -20078.450822 -1135.764802
12471.246942 -20076.496156 -1135.764802
12470.823527 -20074.541490 -1135.764802
12470.400113 -20072.586824 -1135.764802
12469.976699 -20070.632157 -1135.764802
12469.553284 -20068.677491 -1135.764802
12469.129870 -20066.722825 -1135.764802
12468.706456 -20064.768158 -1135.764802
12468.283041 -20062.813492 -1135.764802
12467.859627 -20060.858826 -1135.764802
12467.436213 -20058.904160 -1135.764802
12467.012798 -20056.949493 -1135.764802
12466.589384 -20054.994827 -1135.764802
12466.165970 -20053.040161 -1135.764802
12465.742555 -20051.085494 -1135.764802
12465.319141 -20049.130828 -1135.764802
12464.895726 -20047.176162 -1135.764802
12464.472312 -20045.221496 -1135.764802
12464.048898 -20043.266829 -1135.764802
12463.625483 -20041.312163 -1135.764802
12463.202069 -20039.357497 -1135.764802
12462.778655 -20037.402831 -1135.764802
12462.355240 -20035.448164 -1135.764802
12461.931826 -20033.493498 -1135.764802
12461.508412 -20031.538832 -1135.764802
12461.084997 -20029.584165 -1135.764802
12460.661583 -20027.629499 -1135.764802
12460.238169 -20025.674833 -1135.764802
12459.814754 -20023.720167 -1135.764802
12459.391340 -20021.765500 -1135.764802
12458.967925 -20019.810834 -1135.764802
12458.544511 -20017.856168 -1135.764802
12458.121097 -20015.901501 -1135.764802
12457.697682 -20013.946835 -1135.764802
12457.274268 -20011.992169 -1135.764802
12456.850854 -20010.037503 -1135.764802
12456.427439 -20008.082836 -1135.764802
12456.004025 -20006.128170 -1135.764802
12455.580611 -20004.173504 -1135.764802
12455.157196 -20002.218837 -1135.764802
12454.733782 -20000.264171 -1135.764802
12454.310368 -19998.309505 -1135.764802
12453.886953 -19996.354839 -1135.764802
12453.463539 -19994.400172 -1135.764802
12453.040124 -19992.445506 -1135.764802
12452.616710 -19990.490840 -1135.764802
12452.193296 -19988.536173 -1135.764802
12451.769881 -19986.581507 -1135.764802
12451.346467 -19984.626841 -1135.764802
12450.923053 -19982.672175 -1135.764802
12450.499638 -19980.717508 -1135.764802
12450.076224 -19978.762842 -1135.764802
12449.652810 -19976.808176 -1135.764802
12449.229395 -19974.853509 -1135.764802
12448.805981 -19972.898843 -1135.764802
12448.382567 -19970.944177 -1135.764802
12447.959152 -19968.989511 -1135.764802
12447.535738 -19967.034844 -1135.764802
12447.112323 -19965.080178 -1135.764802
12446.688909 -19963.125512 -1135.764802
12446.265495 -19961.170845 -1135.764802
12445.842080 -19959.216179 -1135.764802
12445.418666 -19957.261513 -1135.764802
12444.995252 -19955.306847 -1135.764802
12444.571837 -19953.352180 -1135.764802
12444.148423 -19951.397514 -1135.764802
12443.725009 -19949.442848 -1135.764802
12443.301594 -19947.488181 -1135.764802
12442.878180 -19945.533515 -1135.764802
12442.454765 -19943.578849 -1135.764802
12442.031351 -19941.624183 -1135.764802
12441.607937 -19939.669516 -1135.764802
12441.184522 -19937.714850 -1135.764802
12440.761108 -19935.760184 -1135.764802
12440.337694 -19933.805517 -1135.764802
12439.914279 -19931.850851 -1135.764802
12439.490865 -19929.896185 -1135.764802
12439.067451 -19927.941519 -1135.764802
12438.644036 -19925.986852 -1135.764802
12438.220622 -19924.032186 -1135.764802
12437.797208 -19922.077520 -1135.764802
12437.373793 -19920.122853 -1135.764802
12436.950379 -19918.168187 -1135.764802
12436.526964 -19916.213521 -1135.764802
12436.103550 -19914.258855 -1135.764802
12435.680136 -19912.304188 -1135.764802
12435.256721 -19910.349522 -1135.764802
12434.833307 -19908.394856 -1135.764802
12434.409893 -19906.440189 -1135.764802
12433.986478 -19904.485523 -1135.764802
12433.563064 -19902.530857 -1135.764802
12433.139650 -19900.576191 -1135.764802
12432.716235 -19898.621524 -1135.764802
12432.292821 -19896.666858 -1135.764802
12431.869407 -19894.712192 -1135.764802
12431.445992 -19892.757526 -1135.764802
12431.022578 -19890.802859 -1135.764802
12430.599163 -19888.848193 -1135.764802
12430.175749 -19886.893527 -1135.764802
12429.752335 -19884.938860 -1135.764802
12429.328920 -19882.984194 -1135.764802
12428.905506 -19881.029528 -1135.764802
12428.482092 -19879.074862 -1135.764802
12428.058677 -19877.120195 -1135.764802
12427.635263 -19875.165529 -1135.764802
12427.211849 -19873.210863 -1135.764802
12426.788434 -19871.256196 -1135.764802
12426.365020 -19869.301530 -1135.764802
12425.941606 -19867.346864 -1135.764802
12425.518191 -19865.392198 -1135.764802
12425.094777 -19863.437531 -1135.764802
12424.671362 -19861.482865 -1135.764802
12424.247948 -19859.528199 -1135.764802
12423.824534 -19857.573532 -1135.764802
12423.401119 -19855.618866 -1135.764802
12422.977705 -19853.664200 -1135.764802
12422.554291 -19851.709534 -1135.764802
12422.130876 -19849.754867 -1135.764802
12421.707462 -19847.800201 -1135.764802
12421.284048 -19845.845535 -1135.764802
12420.860633 -19843.890868 -1135.764802
12420.437219 -19841.936202 -1135.764802
12420.013804 -19839.981536 -1135.764802
12419.590390 -19838.026870 -1135.764802
12419.166976 -19836.072203 -1135.764802
12418.743561 -19834.117537 -1135.764802
12418.320147 -19832.162871 -1135.764802
12417.896733 -19830.208204 -1135.764802
12417.473318 -19828.253538 -1135.764802
12417.049904 -19826.298872 -1135.764802
12416.626490 -19824.344206 -1135.764802
12416.203075 -19822.389539 -1135.764802
12415.779661 -19820.434873 -1135.764802
12415.356247 -19818.480207 -1135.764802
12414.932832 -19816.525540 -1135.764802
12414.509418 -19814.570874 -1135.764802
12414.086003 -19812.616208 -1135.764802
12413.662589 -19810.661542 -1135.764802
12413.239175 -19808.706875 -1135.764802
12412.815760 -19806.752209 -1135.764802
12412.392346 -19804.797543 -1135.764802
12411.968932 -19802.842876 -1135.764802
12411.545517 -19800.888210 -1135.764802
12411.122103 -19798.933544 -1135.764802
12410.698689 -19796.978878 -1135.764802
12410.275274 -19795.024211 -1135.764802
12409.851860 -19793.069545 -1135.764802
12409.428446 -19791.114879 -1135.764802
12409.005031 -19789.160212 -1135.764802
12408.581617 -19787.205546 -1135.764802
12408.158202 -19785.250880 -1135.764802
12407.734788 -19783.296214 -1135.764802
12407.311374 -19781.341547 -1135.764802
12406.887959 -19779.386881 -1135.764802
12406.464545 -19777.432215 -1135.764802
12406.041131 -19775.477548 -1135.764802
12405.617716 -19773.522882 -1135.764802
12405.194302 -19771.568216 -1135.764802
12404.770888 -19769.613550 -1135.764802
12404.347473 -19767.658883 -1135.764802
12403.924059 -19765.704217 -1135.764802
12403.500645 -19763.749551 -1135.764802
12403.077230 -19761.794884 -1135.764802
12402.653816 -19759.840218 -1135.764802
12402.230401 -19757.885552 -1135.764802
12401.806987 -19755.930886 -1135.764802
12401.383573 -19753.976219 -1135.764802
12400.960158 -19752.021553 -1135.764802
12400.536744 -19750.066887 -1135.764802
12400.113330 -19748.112220 -1135.764802
12399.689915 -19746.157554 -1135.764802
12399.266501 -19744.202888 -1135.764802
12398.843087 -19742.248222 -1135.764802
12398.419672 -19740.293555 -1135.764802
12397.996258 -19738.338889 -1135.764802
12397.572844 -19736.384223 -1135.764802
12397.149429 -19734.429557 -1135.764802
12396.726015 -19732.474890 -1135.764802
12396.302600 -19730.520224 -1135.764802
12395.879186 -19728.565558 -1135.764802
12395.455772 -19726.610891 -1135.764802
12395.032357 -19724.656225 -1135.764802
12394.608943 -19722.701559 -1135.764802
12394.185529 -19720.746893 -1135.764802
12393.762114 -19718.792226 -1135.764802
12393.338700 -19716.837560 -1135.764802
12392.915286 -19714.882894 -1135.764802
12392.491871 -19712.928227 -1135.764802
12392.068457 -19710.973561 -1135.764802
12391.645042 -19709.018895 -1135.764802
12391.221628 -19707.064229 -1135.764802
12390.798214 -19705.109562 -1135.764802
12390.374799 -19703.154896 -1135.764802
12389.951385 -19701.200230 -1135.764802
12389.527971 -19699.245563 -1135.764802
12389.104556 -19697.290897 -1135.764802
12388.681142 -19695.336231 -1135.764802
12388.257728 -19693.381565 -1135.764802
12387.834313 -19691.426898 -1135.764802
12387.410899 -19689.472232 -1135.764802
12386.987485 -19687.517566 -1135.764802
12386.564070 -19685.562899 -1135.764802
12386.140656 -19683.608233 -1135.764802
12385.717241 -19681.653567 -1135.764802
12385.293827 -19679.698901 -1135.764802
12384.870413 -19677.744234 -1135.764802
12384.446998 -19675.789568 -1135.764802
12384.023584 -19673.834902 -1135.764802
12383.600170 -19671.880235 -1135.764802
12383.176755 -19669.925569 -1135.764802
12382.753341 -19667.970903 -1135.764802
12382.329927 -19666.016237 -1135.764802
12381.906512 -19664.061570 -1135.764802
12381.483098 -19662.106904 -1135.764802
12381.059684 -19660.152238 -1135.764802
12380.636269 -19658.197571 -1135.764802
12380.212855 -19656.242905 -1135.764802
12379.789440 -19654.288239 -1135.764802
12379.366026 -19652.333573 -1135.764802
12378.942612 -19650.378906 -1135.764802
12378.519197 -19648.424240 -1135.764802
12378.095783 -19646.469574 -1135.764802
12377.672369 -19644.514907 -1135.764802
12377.248954 -19642.560241 -1135.764802
12376.825540 -19640.605575 -1135.764802
12376.402126 -19638.650909 -1135.764802
12375.978711 -19636.696242 -1135.764802
12375.555297 -19634.741576 -1135.764802
12375.131883 -19632.786910 -1135.764802
12374.708468 -19630.832243 -1135.764802
12374.285054 -19628.877577 -1135.764802
12373.861639 -19626.922911 -1135.764802
12373.438225 -19624.968245 -1135.764802
12373.014811 -19623.013578 -1135.764802
12372.591396 -19621.058912 -1135.764802
12372.167982 -19619.104246 -1135.764802
12371.744568 -19617.149579 -1135.764802
12371.321153 -19615.194913 -1135.764802
12370.897739 -19613.240247 -1135.764802
12370.474325 -19611.285581 -1135.764802
12370.050910 -19609.330914 -1135.764802
12369.627496 -19607.376248 -1135.764802
12369.204082 -19605.421582 -1135.764802
12368.780667 -19603.466915 -1135.764802
12368.357253 -19601.512249 -1135.764802
12367.933838 -19599.557583 -1135.764802
12367.510424 -19597.602917 -1135.764802
12367.087010 -19595.648250 -1135.764802
12366.663595 -19593.693584 -1135.764802
12366.240181 -19591.738918 -1135.764802
12365.816767 -19589.784252 -1135.764802
12365.393352 -19587.829585 -1135.764802
12364.969938 -19585.874919 -1135.764802
12364.546524 -19583.920253 -1135.764802
12364.123109 -19581.965586 -1135.764802
12363.699695 -19580.010920 -1135.764802
12363.276280 -19578.056254 -1135.764802
12362.852866 -19576.101588 -1135.764802
12362.429452 -19574.146921 -1135.764802
12362.006037 -19572.192255 -1135.764802
12361.582623 -19570.237589 -1135.764802
12361.159209 -19568.282922 -1135.764802
12360.735794 -19566.328256 -1135.764802
12360.312380 -19564.373590 -1135.764802
12359.888966 -19562.418924 -1135.764802
12359.465551 -19560.464257 -1135.764802
12359.042137 -19558.509591 -1135.764802
12358.618723 -19556.554925 -1135.764802
12358.195308 -19554.600258 -1135.764802
12357.771894 -19552.645592 -1135.764802
12357.348479 -19550.690926 -1135.764802
12356.925065 -19548.736260 -1135.764802
