264.267816 -2053.714154 399.319208
262.427446 -2054.429009 398.999805
260.587075 -2055.143863 398.680401
258.746704 -2055.858718 398.360998
256.906334 -2056.573573 398.041595
255.065963 -2057.288428 397.722192
253.225592 -2058.003282 397.402789
251.385221 -2058.718137 397.083386
249.544851 -2059.432992 396.763982
247.704480 -2060.147847 396.444579
245.864109 -2060.862701 396.125176
244.023739 -2061.577556 395.805773
242.183368 -2062.292411 395.486370
240.342997 -2063.007266 395.166966
238.502626 -2063.722120 394.847563
236.662256 -2064.436975 394.528160
234.821885 -2065.151830 394.208757
232.981514 -2065.866684 393.889354
231.141144 -2066.581539 393.569951
229.300773 -2067.296394 393.250547
227.460402 -2068.011249 392.931144
225.620032 -2068.726103 392.611741
223.779661 -2069.440958 392.292338
221.939290 -2070.155813 391.972935
220.098919 -2070.870668 391.653531
218.258549 -2071.585522 391.334128
216.418178 -2072.300377 391.014725
214.577807 -2073.015232 390.695322
212.737437 -2073.730087 390.375919
210.897066 -2074.444941 390.056516
209.056695 -2075.159796 389.737112
207.216325 -2075.874651 389.417709
205.375954 -2076.589506 389.098306
203.535583 -2077.304360 388.778903
201.695212 -2078.019215 388.459500
199.854842 -2078.734070 388.140097
198.014471 -2079.448924 387.820693
196.174100 -2080.163779 387.501290
194.333730 -2080.878634 387.181887
192.493359 -2081.593489 386.862484
190.652988 -2082.308343 386.543081
188.812618 -2083.023198 386.223677
186.972247 -2083.738053 385.904274
185.131876 -2084.452908 385.584871
183.291505 -2085.167762 385.265468
181.451135 -2085.882617 384.946065
179.610764 -2086.597472 384.626662
176.000000 -2088.000000 384.000000
174.115080 -2088.000000 383.331363
172.230160 -2088.000000 382.662726
170.345239 -2088.000000 381.994088
168.460319 -2088.000000 381.325451
166.575399 -2088.000000 380.656814
164.690479 -2088.000000 379.988177
162.805558 -2088.000000 379.319539
160.920638 -2088.000000 378.650902
159.035718 -2088.000000 377.982265
157.150798 -2088.000000 377.313628
155.265878 -2088.000000 376.644990
153.380957 -2088.000000 375.976353
151.496037 -2088.000000 375.307716
149.611117 -2088.000000 374.639079
147.726197 -2088.000000 373.970441
145.841276 -2088.000000 373.301804
143.956356 -2088.000000 372.633167
142.071436 -2088.000000 371.964530
140.186516 -2088.000000 371.295892
138.301596 -2088.000000 370.627255
136.416675 -2088.000000 369.958618
134.531755 -2088.000000 369.289981
132.646835 -2088.000000 368.621343
130.761915 -2088.000000 367.952706
128.876994 -2088.000000 367.284069
126.992074 -2088.000000 366.615432
125.107154 -2088.000000 365.946795
123.222234 -2088.000000 365.278157
121.337314 -2088.000000 364.609520
119.452393 -2088.000000 363.940883
117.567473 -2088.000000 363.272246
115.682553 -2088.000000 362.603608
113.797633 -2088.000000 361.934971
111.912712 -2088.000000 361.266334
110.027792 -2088.000000 360.597697
108.142872 -2088.000000 359.929059
106.257952 -2088.000000 359.260422
104.373032 -2088.000000 358.591785
102.488111 -2088.000000 357.923148
100.603191 -2088.000000 357.254510
98.718271 -2088.000000 356.585873
96.833351 -2088.000000 355.917236
94.948430 -2088.000000 355.248599
93.063510 -2088.000000 354.579961
91.178590 -2088.000000 353.911324
89.293670 -2088.000000 353.242687
87.408750 -2088.000000 352.574050
85.523829 -2088.000000 351.905412
83.638909 -2088.000000 351.236775
81.753989 -2088.000000 350.568138
79.869069 -2088.000000 349.899501
77.984148 -2088.000000 349.230863
76.099228 -2088.000000 348.562226
74.214308 -2088.000000 347.893589
72.329388 -2088.000000 347.224952
70.444468 -2088.000000 346.556315
68.559547 -2088.000000 345.887677
66.674627 -2088.000000 345.219040
64.789707 -2088.000000 344.550403
62.904787 -2088.000000 343.881766
61.019867 -2088.000000 343.213128
59.134946 -2088.000000 342.544491
57.250026 -2088.000000 341.875854
55.365106 -2088.000000 341.207217
53.480186 -2088.000000 340.538579
51.595265 -2088.000000 339.869942
49.710345 -2088.000000 339.201305
47.825425 -2088.000000 338.532668
45.940505 -2088.000000 337.864030
44.055585 -2088.000000 337.195393
42.170664 -2088.000000 336.526756
40.285744 -2088.000000 335.858119
38.400824 -2088.000000 335.189481
36.515904 -2088.000000 334.520844
34.630983 -2088.000000 333.852207
32.746063 -2088.000000 333.183570
30.861143 -2088.000000 332.514932
28.976223 -2088.000000 331.846295
27.091303 -2088.000000 331.177658
25.206382 -2088.000000 330.509021
23.321462 -2088.000000 329.840384
21.436542 -2088.000000 329.171746
19.551622 -2088.000000 328.503109
17.666701 -2088.000000 327.834472
15.781781 -2088.000000 327.165835
13.896861 -2088.000000 326.497197
12.011941 -2088.000000 325.828560
10.127021 -2088.000000 325.159923
8.242100 -2088.000000 324.491286
6.357180 -2088.000000 323.822648
4.472260 -2088.000000 323.154011
2.587340 -2088.000000 322.485374
0.702419 -2088.000000 321.816737
-1.182501 -2088.000000 321.148099
-3.067421 -2088.000000 320.479462
-4.952341 -2088.000000 319.810825
-6.837261 -2088.000000 319.142188
-8.722182 -2088.000000 318.473550
-10.607102 -2088.000000 317.804913
-12.492022 -2088.000000 317.136276
-14.376942 -2088.000000 316.467639
-16.261863 -2088.000000 315.799001
-18.146783 -2088.000000 315.130364
-20.031703 -2088.000000 314.461727
-21.916623 -2088.000000 313.793090
-23.801543 -2088.000000 313.124452
-25.686464 -2088.000000 312.455815
-27.571384 -2088.000000 311.787178
-29.456304 -2088.000000 311.118541
-31.341224 -2088.000000 310.449904
-33.226145 -2088.000000 309.781266
-35.111065 -2088.000000 309.112629
-36.995985 -2088.000000 308.443992
-38.880905 -2088.000000 307.775355
-40.765825 -2088.000000 307.106717
-42.650746 -2088.000000 306.438080
-44.535666 -2088.000000 305.769443
-46.420586 -2088.000000 305.100806
-48.305506 -2088.000000 304.432168
-50.190427 -2088.000000 303.763531
-52.075347 -2088.000000 303.094894
-53.960267 -2088.000000 302.426257
-55.845187 -2088.000000 301.757619
-57.730107 -2088.000000 301.088982
-59.615028 -2088.000000 300.420345
-61.499948 -2088.000000 299.751708
-63.384868 -2088.000000 299.083070
-65.269788 -2088.000000 298.414433
-67.154709 -2088.000000 297.745796
-69.039629 -2088.000000 297.077159
-70.924549 -2088.000000 296.408521
-72.809469 -2088.000000 295.739884
-74.694389 -2088.000000 295.071247
-76.579310 -2088.000000 294.402610
-78.464230 -2088.000000 293.733973
-80.349150 -2088.000000 293.065335
-82.234070 -2088.000000 292.396698
-84.118991 -2088.000000 291.728061
-86.003911 -2088.000000 291.059424
-87.888831 -2088.000000 290.390786
-89.773751 -2088.000000 289.722149
-91.658671 -2088.000000 289.053512
-93.543592 -2088.000000 288.384875
-95.428512 -2088.000000 287.716237
-97.313432 -2088.000000 287.047600
-99.198352 -2088.000000 286.378963
-101.083273 -2088.000000 285.710326
-102.968193 -2088.000000 285.041688
-104.853113 -2088.000000 284.373051
-106.738033 -2088.000000 283.704414
-108.622953 -2088.000000 283.035777
-110.507874 -2088.000000 282.367139
-112.392794 -2088.000000 281.698502
-114.277714 -2088.000000 281.029865
-116.162634 -2088.000000 280.361228
-118.047555 -2088.000000 279.692590
-119.932475 -2088.000000 279.023953
-121.817395 -2088.000000 278.355316
-123.702315 -2088.000000 277.686679
-125.587235 -2088.000000 277.018041
-127.472156 -2088.000000 276.349404
-129.357076 -2088.000000 275.680767
-131.241996 -2088.000000 275.012130
-133.126916 -2088.000000 274.343493
-135.011837 -2088.000000 273.674855
-136.896757 -2088.000000 273.006218
-138.781677 -2088.000000 272.337581
-140.666597 -2088.000000 271.668944
-142.551517 -2088.000000 271.000306
-144.436438 -2088.000000 270.331669
-146.321358 -2088.000000 269.663032
-148.206278 -2088.000000 268.994395
-150.091198 -2088.000000 268.325757
-151.976118 -2088.000000 267.657120
-153.861039 -2088.000000 266.988483
-155.745959 -2088.000000 266.319846
-157.630879 -2088.000000 265.651208
-159.515799 -2088.000000 264.982571
-161.400720 -2088.000000 264.313934
-163.285640 -2088.000000 263.645297
-165.170560 -2088.000000 262.976659
-167.055480 -2088.000000 262.308022
-168.940400 -2088.000000 261.639385
-170.825321 -2088.000000 260.970748
-172.710241 -2088.000000 260.302110
-174.595161 -2088.000000 259.633473
-176.480081 -2088.000000 258.964836
-178.365002 -2088.000000 258.296199
-180.249922 -2088.000000 257.627562
-182.134842 -2088.000000 256.958924
-184.019762 -2088.000000 256.290287
-185.904682 -2088.000000 255.621650
-187.789603 -2088.000000 254.953013
-189.674523 -2088.000000 254.284375
-191.559443 -2088.000000 253.615738
-193.444363 -2088.000000 252.947101
-195.329284 -2088.000000 252.278464
-197.214204 -2088.000000 251.609826
-199.099124 -2088.000000 250.941189
-200.984044 -2088.000000 250.272552
-202.868964 -2088.000000 249.603915
-204.753885 -2088.000000 248.935277
-206.638805 -2088.000000 248.266640
-208.523725 -2088.000000 247.598003
-210.408645 -2088.000000 246.929366
-212.293566 -2088.000000 246.260728
-214.178486 -2088.000000 245.592091
-216.063406 -2088.000000 244.923454
-217.948326 -2088.000000 244.254817
-219.833246 -2088.000000 243.586179
-221.718167 -2088.000000 242.917542
-223.603087 -2088.000000 242.248905
-225.488007 -2088.000000 241.580268
-227.372927 -2088.000000 240.911631
-229.257848 -2088.000000 240.242993
-231.142768 -2088.000000 239.574356
-233.027688 -2088.000000 238.905719
-234.912608 -2088.000000 238.237082
-236.797528 -2088.000000 237.568444
-238.682449 -2088.000000 236.899807
-240.567369 -2088.000000 236.231170
-242.452289 -2088.000000 235.562533
-244.337209 -2088.000000 234.893895
-246.222130 -2088.000000 234.225258
-248.107050 -2088.000000 233.556621
-249.991970 -2088.000000 232.887984
-251.876890 -2088.000000 232.219346
-253.761810 -2088.000000 231.550709
-255.646731 -2088.000000 230.882072
-257.531651 -2088.000000 230.213435
-259.416571 -2088.000000 229.544797
-261.301491 -2088.000000 228.876160
-263.186412 -2088.000000 228.207523
-265.071332 -2088.000000 227.538886
-266.956252 -2088.000000 226.870248
-268.841172 -2088.000000 226.201611
-270.726092 -2088.000000 225.532974
-272.611013 -2088.000000 224.864337
-274.495933 -2088.000000 224.195699
-276.380853 -2088.000000 223.527062
-278.265773 -2088.000000 222.858425
-280.150694 -2088.000000 222.189788
-282.035614 -2088.000000 221.521151
-283.920534 -2088.000000 220.852513
-285.805454 -2088.000000 220.183876
-287.690374 -2088.000000 219.515239
-289.575295 -2088.000000 218.846602
-291.460215 -2088.000000 218.177964
-293.345135 -2088.000000 217.509327
-295.230055 -2088.000000 216.840690
-297.114976 -2088.000000 216.172053
-298.999896 -2088.000000 215.503415
-300.884816 -2088.000000 214.834778
-302.769736 -2088.000000 214.166141
-304.654656 -2088.000000 213.497504
-306.539577 -2088.000000 212.828866
-308.424497 -2088.000000 212.160229
-310.309417 -2088.000000 211.491592
-312.194337 -2088.000000 210.822955
-314.079258 -2088.000000 210.154317
-315.964178 -2088.000000 209.485680
-317.849098 -2088.000000 208.817043
-319.734018 -2088.000000 208.148406
-321.618938 -2088.000000 207.479768
-323.503859 -2088.000000 206.811131
-325.388779 -2088.000000 206.142494
-327.273699 -2088.000000 205.473857
-329.158619 -2088.000000 204.805220
-331.043540 -2088.000000 204.136582
-332.928460 -2088.000000 203.467945
-334.813380 -2088.000000 202.799308
-336.698300 -2088.000000 202.130671
-338.583220 -2088.000000 201.462033
-340.468141 -2088.000000 200.793396
-342.353061 -2088.000000 200.124759
-344.237981 -2088.000000 199.456122
-346.122901 -2088.000000 198.787484
-348.007822 -2088.000000 198.118847
-349.892742 -2088.000000 197.450210
-351.777662 -2088.000000 196.781573
-353.662582 -2088.000000 196.112935
-355.547502 -2088.000000 195.444298
-357.432423 -2088.000000 194.775661
-359.317343 -2088.000000 194.107024
-361.202263 -2088.000000 193.438386
-363.087183 -2088.000000 192.769749
-364.972103 -2088.000000 192.101112
-366.857024 -2088.000000 191.432475
-368.741944 -2088.000000 190.763837
-370.626864 -2088.000000 190.095200
-372.511784 -2088.000000 189.426563
-374.396705 -2088.000000 188.757926
-376.281625 -2088.000000 188.089288
-378.166545 -2088.000000 187.420651
-380.051465 -2088.000000 186.752014
-381.936385 -2088.000000 186.083377
-383.821306 -2088.000000 185.414740
-385.706226 -2088.000000 184.746102
-387.591146 -2088.000000 184.077465
-389.476066 -2088.000000 183.408828
-391.360987 -2088.000000 182.740191
-393.245907 -2088.000000 182.071553
-395.130827 -2088.000000 181.402916
-397.015747 -2088.000000 180.734279
-398.900667 -2088.000000 180.065642
-400.785588 -2088.000000 179.397004
-402.670508 -2088.000000 178.728367
-404.555428 -2088.000000 178.059730
-406.440348 -2088.000000 177.391093
-408.325269 -2088.000000 176.722455
-410.210189 -2088.000000 176.053818
-412.095109 -2088.000000 175.385181
-413.980029 -2088.000000 174.716544
-415.864949 -2088.000000 174.047906
-417.749870 -2088.000000 173.379269
-419.634790 -2088.000000 172.710632
-421.519710 -2088.000000 172.041995
-423.404630 -2088.000000 171.373357
-425.289551 -2088.000000 170.704720
-427.174471 -2088.000000 170.036083
-429.059391 -2088.000000 169.367446
-430.944311 -2088.000000 168.698809
-432.829231 -2088.000000 168.030171
-434.714152 -2088.000000 167.361534
-436.599072 -2088.000000 166.692897
-438.483992 -2088.000000 166.024260
-440.368912 -2088.000000 165.355622
-442.253833 -2088.000000 164.686985
-444.138753 -2088.000000 164.018348
-446.023673 -2088.000000 163.349711
-447.908593 -2088.000000 162.681073
-449.793513 -2088.000000 162.012436
-451.678434 -2088.000000 161.343799
-453.563354 -2088.000000 160.675162
-455.448274 -2088.000000 160.006524
-457.333194 -2088.000000 159.337887
-459.218115 -2088.000000 158.669250
-461.103035 -2088.000000 158.000613
-462.987955 -2088.000000 157.331975
-464.872875 -2088.000000 156.663338
-466.757795 -2088.000000 155.994701
-468.642716 -2088.000000 155.326064
-470.527636 -2088.000000 154.657426
-472.412556 -2088.000000 153.988789
-474.297476 -2088.000000 153.320152
-476.182397 -2088.000000 152.651515
-478.067317 -2088.000000 151.982877
-479.952237 -2088.000000 151.314240
-481.837157 -2088.000000 150.645603
-483.722077 -2088.000000 149.976966
-485.606998 -2088.000000 149.308329
-487.491918 -2088.000000 148.639691
-489.376838 -2088.000000 147.971054
-491.261758 -2088.000000 147.302417
-493.146679 -2088.000000 146.633780
-495.031599 -2088.000000 145.965142
-496.916519 -2088.000000 145.296505
-498.801439 -2088.000000 144.627868
-500.686359 -2088.000000 143.959231
-502.571280 -2088.000000 143.290593
-504.456200 -2088.000000 142.621956
-506.341120 -2088.000000 141.953319
-508.226040 -2088.000000 141.284682
-510.110961 -2088.000000 140.616044
-511.995881 -2088.000000 139.947407
-513.880801 -2088.000000 139.278770
-515.765721 -2088.000000 138.610133
-517.650641 -2088.000000 137.941495
-519.535562 -2088.000000 137.272858
-521.420482 -2088.000000 136.604221
-523.305402 -2088.000000 135.935584
-525.190322 -2088.000000 135.266946
-527.075243 -2088.000000 134.598309
-528.960163 -2088.000000 133.929672
-530.845083 -2088.000000 133.261035
-532.730003 -2088.000000 132.592398
-534.614923 -2088.000000 131.923760
-536.499844 -2088.000000 131.255123
-538.384764 -2088.000000 130.586486
-540.269684 -2088.000000 129.917849
-542.154604 -2088.000000 129.249211
-544.039525 -2088.000000 128.580574
-545.924445 -2088.000000 127.911937
-547.809365 -2088.000000 127.243300
-549.694285 -2088.000000 126.574662
-551.579205 -2088.000000 125.906025
-553.464126 -2088.000000 125.237388
-555.349046 -2088.000000 124.568751
-557.233966 -2088.000000 123.900113
-559.118886 -2088.000000 123.231476
-561.003807 -2088.000000 122.562839
-562.888727 -2088.000000 121.894202
-564.773647 -2088.000000 121.225564
-566.658567 -2088.000000 120.556927
-568.543487 -2088.000000 119.888290
-570.428408 -2088.000000 119.219653
-572.313328 -2088.000000 118.551015
-574.198248 -2088.000000 117.882378
-576.083168 -2088.000000 117.213741
-577.968088 -2088.000000 116.545104
-579.853009 -2088.000000 115.876467
-581.737929 -2088.000000 115.207829
-583.622849 -2088.000000 114.539192
-585.507769 -2088.000000 113.870555
-587.392690 -2088.000000 113.201918
-589.277610 -2088.000000 112.533280
-591.162530 -2088.000000 111.864643
-593.047450 -2088.000000 111.196006
-594.932370 -2088.000000 110.527369
-596.817291 -2088.000000 109.858731
-598.702211 -2088.000000 109.190094
-600.587131 -2088.000000 108.521457
-602.472051 -2088.000000 107.852820
-604.356972 -2088.000000 107.184182
-606.241892 -2088.000000 106.515545
-608.126812 -2088.000000 105.846908
-610.011732 -2088.000000 105.178271
-611.896652 -2088.000000 104.509633
-613.781573 -2088.000000 103.840996
-615.666493 -2088.000000 103.172359
-617.551413 -2088.000000 102.503722
-619.436333 -2088.000000 101.835084
-621.321254 -2088.000000 101.166447
-623.206174 -2088.000000 100.497810
-625.091094 -2088.000000 99.829173
-626.976014 -2088.000000 99.160535
-628.860934 -2088.000000 98.491898
-630.745855 -2088.000000 97.823261
-632.630775 -2088.000000 97.154624
-634.515695 -2088.000000 96.485987
-636.400615 -2088.000000 95.817349
-638.285536 -2088.000000 95.148712
-640.170456 -2088.000000 94.480075
-642.055376 -2088.000000 93.811438
-643.940296 -2088.000000 93.142800
-645.825216 -2088.000000 92.474163
-647.710137 -2088.000000 91.805526
-649.595057 -2088.000000 91.136889
-651.479977 -2088.000000 90.468251
-653.364897 -2088.000000 89.799614
-655.249818 -2088.000000 89.130977
-657.134738 -2088.000000 88.462340
-659.019658 -2088.000000 87.793702
-660.904578 -2088.000000 87.125065
-662.789498 -2088.000000 86.456428
-664.674419 -2088.000000 85.787791
-666.559339 -2088.000000 85.119153
-668.444259 -2088.000000 84.450516
-670.329179 -2088.000000 83.781879
-672.214100 -2088.000000 83.113242
-674.099020 -2088.000000 82.444604
-675.983940 -2088.000000 81.775967
-677.868860 -2088.000000 81.107330
-679.753780 -2088.000000 80.438693
-681.638701 -2088.000000 79.770056
-683.523621 -2088.000000 79.101418
-685.408541 -2088.000000 78.432781
-687.293461 -2088.000000 77.764144
-689.178382 -2088.000000 77.095507
-691.063302 -2088.000000 76.426869
-692.948222 -2088.000000 75.758232
-694.833142 -2088.000000 75.089595
-696.718062 -2088.000000 74.420958
-698.602983 -2088.000000 73.752320
-700.487903 -2088.000000 73.083683
-702.372823 -2088.000000 72.415046
-704.257743 -2088.000000 71.746409
-706.142664 -2088.000000 71.077771
-708.027584 -2088.000000 70.409134
-709.912504 -2088.000000 69.740497
-711.797424 -2088.000000 69.071860
-713.682344 -2088.000000 68.403222
-715.567265 -2088.000000 67.734585
-717.452185 -2088.000000 67.065948
-719.337105 -2088.000000 66.397311
-721.222025 -2088.000000 65.728673
-723.106946 -2088.000000 65.060036
-724.991866 -2088.000000 64.391399
-726.876786 -2088.000000 63.722762
-728.761706 -2088.000000 63.054124
-730.646626 -2088.000000 62.385487
-732.531547 -2088.000000 61.716850
-734.416467 -2088.000000 61.048213
-736.301387 -2088.000000 60.379576
-738.186307 -2088.000000 59.710938
-740.071228 -2088.000000 59.042301
-741.956148 -2088.000000 58.373664
-743.841068 -2088.000000 57.705027
-745.725988 -2088.000000 57.036389
-747.610908 -2088.000000 56.367752
-749.495829 -2088.000000 55.699115
-751.380749 -2088.000000 55.030478
-753.265669 -2088.000000 54.361840
-755.150589 -2088.000000 53.693203
-757.035510 -2088.000000 53.024566
-758.920430 -2088.000000 52.355929
-760.805350 -2088.000000 51.687291
-762.690270 -2088.000000 51.018654
-764.575190 -2088.000000 50.350017
-766.460111 -2088.000000 49.681380
-768.345031 -2088.000000 49.012742
-770.229951 -2088.000000 48.344105
-772.114871 -2088.000000 47.675468
-773.999792 -2088.000000 47.006831
-775.884712 -2088.000000 46.338193
-777.769632 -2088.000000 45.669556
-779.654552 -2088.000000 45.000919
-781.539472 -2088.000000 44.332282
-783.424393 -2088.000000 43.663645
-785.309313 -2088.000000 42.995007
-787.194233 -2088.000000 42.326370
-789.079153 -2088.000000 41.657733
-790.964073 -2088.000000 40.989096
-792.848994 -2088.000000 40.320458
-794.733914 -2088.000000 39.651821
-796.618834 -2088.000000 38.983184
-798.503754 -2088.000000 38.314547
-800.388675 -2088.000000 37.645909
-802.273595 -2088.000000 36.977272
-804.158515 -2088.000000 36.308635
-806.043435 -2088.000000 35.639998
-807.928355 -2088.000000 34.971360
-809.813276 -2088.000000 34.302723
-811.698196 -2088.000000 33.634086
-813.583116 -2088.000000 32.965449
-815.468036 -2088.000000 32.296811
-817.352957 -2088.000000 31.628174
-819.237877 -2088.000000 30.959537
-821.122797 -2088.000000 30.290900
-823.007717 -2088.000000 29.622262
-824.892637 -2088.000000 28.953625
-826.777558 -2088.000000 28.284988
-828.662478 -2088.000000 27.616351
-830.547398 -2088.000000 26.947713
-832.432318 -2088.000000 26.279076
-834.317239 -2088.000000 25.610439
-836.202159 -2088.000000 24.941802
-838.087079 -2088.000000 24.273165
-839.971999 -2088.000000 23.604527
-841.856919 -2088.000000 22.935890
-843.741840 -2088.000000 22.267253
-845.626760 -2088.000000 21.598616
-847.511680 -2088.000000 20.929978
-849.396600 -2088.000000 20.261341
-851.281521 -2088.000000 19.592704
-853.166441 -2088.000000 18.924067
-855.051361 -2088.000000 18.255429
-856.936281 -2088.000000 17.586792
-858.821201 -2088.000000 16.918155
-860.706122 -2088.000000 16.249518
-862.591042 -2088.000000 15.580880
-864.475962 -2088.000000 14.912243
-866.360882 -2088.000000 14.243606
-868.245803 -2088.000000 13.574969
-870.130723 -2088.000000 12.906331
-872.015643 -2088.000000 12.237694
-873.900563 -2088.000000 11.569057
-875.785483 -2088.000000 10.900420
-877.670404 -2088.000000 10.231782
-879.555324 -2088.000000 9.563145
-881.440244 -2088.000000 8.894508
-883.325164 -2088.000000 8.225871
-885.210085 -2088.000000 7.557234
-887.095005 -2088.000000 6.888596
-888.979925 -2088.000000 6.219959
-890.864845 -2088.000000 5.551322
-892.749765 -2088.000000 4.882685
-894.634686 -2088.000000 4.214047
-896.519606 -2088.000000 3.545410
-898.404526 -2088.000000 2.876773
-900.289446 -2088.000000 2.208136
-902.174367 -2088.000000 1.539498
-904.059287 -2088.000000 0.870861
-905.944207 -2088.000000 0.202224
-907.829127 -2088.000000 -0.466413
-909.714047 -2088.000000 -1.135051
-911.598968 -2088.000000 -1.803688
-913.483888 -2088.000000 -2.472325
-915.368808 -2088.000000 -3.140962
-917.253728 -2088.000000 -3.809600
-919.138649 -2088.000000 -4.478237
-921.023569 -2088.000000 -5.146874
-922.908489 -2088.000000 -5.815511
-924.793409 -2088.000000 -6.484149
-926.678329 -2088.000000 -7.152786
-928.563250 -2088.000000 -7.821423
-930.448170 -2088.000000 -8.490060
-932.333090 -2088.000000 -9.158697
-934.218010 -2088.000000 -9.827335
-936.102931 -2088.000000 -10.495972
-937.987851 -2088.000000 -11.164609
-939.872771 -2088.000000 -11.833246
-941.757691 -2088.000000 -12.501884
-943.642611 -2088.000000 -13.170521
-945.527532 -2088.000000 -13.839158
-947.412452 -2088.000000 -14.507795
-949.297372 -2088.000000 -15.176433
-951.182292 -2088.000000 -15.845070
-953.067213 -2088.000000 -16.513707
-954.952133 -2088.000000 -17.182344
-956.837053 -2088.000000 -17.850982
-958.721973 -2088.000000 -18.519619
-960.606893 -2088.000000 -19.188256
-962.491814 -2088.000000 -19.856893
-964.376734 -2088.000000 -20.525531
-966.261654 -2088.000000 -21.194168
-968.146574 -2088.000000 -21.862805
-970.031495 -2088.000000 -22.531442
-971.916415 -2088.000000 -23.200080
-973.801335 -2088.000000 -23.868717
-975.686255 -2088.000000 -24.537354
-977.571175 -2088.000000 -25.205991
-979.456096 -2088.000000 -25.874629
-981.341016 -2088.000000 -26.543266
-983.225936 -2088.000000 -27.211903
-985.110856 -2088.000000 -27.880540
-986.995777 -2088.000000 -28.549177
-988.880697 -2088.000000 -29.217815
-990.765617 -2088.000000 -29.886452
-992.650537 -2088.000000 -30.555089
-994.535457 -2088.000000 -31.223726
-996.420378 -2088.000000 -31.892364
-998.305298 -2088.000000 -32.561001
-1000.190218 -2088.000000 -33.229638
-1002.075138 -2088.000000 -33.898275
-1003.960058 -2088.000000 -34.566913
-1005.844979 -2088.000000 -35.235550
-1007.729899 -2088.000000 -35.904187
-1009.614819 -2088.000000 -36.572824
-1011.499739 -2088.000000 -37.241462
-1013.384660 -2088.000000 -37.910099
-1015.269580 -2088.000000 -38.578736
-1017.154500 -2088.000000 -39.247373
-1019.039420 -2088.000000 -39.916011
-1020.924340 -2088.000000 -40.584648
-1022.809261 -2088.000000 -41.253285
-1024.694181 -2088.000000 -41.921922
-1026.579101 -2088.000000 -42.590560
-1028.464021 -2088.000000 -43.259197
-1030.348942 -2088.000000 -43.927834
-1032.233862 -2088.000000 -44.596471
-1034.118782 -2088.000000 -45.265108
-1036.003702 -2088.000000 -45.933746
-1037.888622 -2088.000000 -46.602383
-1039.773543 -2088.000000 -47.271020
-1041.658463 -2088.000000 -47.939657
-1043.543383 -2088.000000 -48.608295
-1045.428303 -2088.000000 -49.276932
-1047.313224 -2088.000000 -49.945569
-1049.198144 -2088.000000 -50.614206
-1051.083064 -2088.000000 -51.282844
-1052.967984 -2088.000000 -51.951481
-1054.852904 -2088.000000 -52.620118
-1056.737825 -2088.000000 -53.288755
-1058.622745 -2088.000000 -53.957393
-1060.507665 -2088.000000 -54.626030
-1062.392585 -2088.000000 -55.294667
-1064.277506 -2088.000000 -55.963304
-1066.162426 -2088.000000 -56.631942
-1068.047346 -2088.000000 -57.300579
-1069.932266 -2088.000000 -57.969216
-1071.817186 -2088.000000 -58.637853
-1073.702107 -2088.000000 -59.306491
-1075.587027 -2088.000000 -59.975128
-1077.471947 -2088.000000 -60.643765
-1079.356867 -2088.000000 -61.312402
-1081.241788 -2088.000000 -61.981040
-1083.126708 -2088.000000 -62.649677
-1085.011628 -2088.000000 -63.318314
-1086.896548 -2088.000000 -63.986951
-1088.781468 -2088.000000 -64.655588
-1090.666389 -2088.000000 -65.324226
-1092.551309 -2088.000000 -65.992863
-1094.436229 -2088.000000 -66.661500
-1096.321149 -2088.000000 -67.330137
-1098.206070 -2088.000000 -67.998775
-1100.090990 -2088.000000 -68.667412
-1101.975910 -2088.000000 -69.336049
-1103.860830 -2088.000000 -70.004686
-1105.745750 -2088.000000 -70.673324
-1107.630671 -2088.000000 -71.341961
-1109.515591 -2088.000000 -72.010598
-1111.400511 -2088.000000 -72.679235
-1113.285431 -2088.000000 -73.347873
-1115.170352 -2088.000000 -74.016510
-1117.055272 -2088.000000 -74.685147
-1118.940192 -2088.000000 -75.353784
-1120.825112 -2088.000000 -76.022422
-1122.710032 -2088.000000 -76.691059
-1124.594953 -2088.000000 -77.359696
-1126.479873 -2088.000000 -78.028333
-1128.364793 -2088.000000 -78.696971
-1130.249713 -2088.000000 -79.365608
-1132.134634 -2088.000000 -80.034245
-1134.019554 -2088.000000 -80.702882
-1135.904474 -2088.000000 -81.371519
-1137.789394 -2088.000000 -82.040157
-1139.674314 -2088.000000 -82.708794
-1141.559235 -2088.000000 -83.377431
-1143.444155 -2088.000000 -84.046068
-1145.329075 -2088.000000 -84.714706
-1147.213995 -2088.000000 -85.383343
-1149.098916 -2088.000000 -86.051980
-1150.983836 -2088.000000 -86.720617
-1152.868756 -2088.000000 -87.389255
-1154.753676 -2088.000000 -88.057892
-1156.638596 -2088.000000 -88.726529
-1158.523517 -2088.000000 -89.395166
-1160.408437 -2088.000000 -90.063804
-1162.293357 -2088.000000 -90.732441
-1164.178277 -2088.000000 -91.401078
-1166.063198 -2088.000000 -92.069715
-1167.948118 -2088.000000 -92.738353
-1169.833038 -2088.000000 -93.406990
-1171.717958 -2088.000000 -94.075627
-1173.602878 -2088.000000 -94.744264
-1175.487799 -2088.000000 -95.412902
-1177.372719 -2088.000000 -96.081539
-1179.257639 -2088.000000 -96.750176
-1181.142559 -2088.000000 -97.418813
-1183.027480 -2088.000000 -98.087451
-1184.912400 -2088.000000 -98.756088
-1186.797320 -2088.000000 -99.424725
-1188.682240 -2088.000000 -100.093362
-1190.567160 -2088.000000 -100.761999
-1192.452081 -2088.000000 -101.430637
-1194.337001 -2088.000000 -102.099274
-1196.221921 -2088.000000 -102.767911
-1198.106841 -2088.000000 -103.436548
-1199.991762 -2088.000000 -104.105186
-1201.876682 -2088.000000 -104.773823
-1203.761602 -2088.000000 -105.442460
-1205.646522 -2088.000000 -106.111097
-1207.531442 -2088.000000 -106.779735
-1209.416363 -2088.000000 -107.448372
-1211.301283 -2088.000000 -108.117009
-1213.186203 -2088.000000 -108.785646
-1215.071123 -2088.000000 -109.454284
-1216.956043 -2088.000000 -110.122921
-1218.840964 -2088.000000 -110.791558
-1220.725884 -2088.000000 -111.460195
-1222.610804 -2088.000000 -112.128833
-1224.495724 -2088.000000 -112.797470
-1226.380645 -2088.000000 -113.466107
-1228.265565 -2088.000000 -114.134744
-1230.150485 -2088.000000 -114.803382
-1232.035405 -2088.000000 -115.472019
-1233.920325 -2088.000000 -116.140656
-1235.805246 -2088.000000 -116.809293
-1237.690166 -2088.000000 -117.477930
-1239.575086 -2088.000000 -118.146568
-1241.460006 -2088.000000 -118.815205
-1243.344927 -2088.000000 -119.483842
-1245.229847 -2088.000000 -120.152479
-1247.114767 -2088.000000 -120.821117
-1248.999687 -2088.000000 -121.489754
-1250.884607 -2088.000000 -122.158391
-1252.769528 -2088.000000 -122.827028
-1254.654448 -2088.000000 -123.495666
-1256.539368 -2088.000000 -124.164303
-1258.424288 -2088.000000 -124.832940
-1260.309209 -2088.000000 -125.501577
-1262.194129 -2088.000000 -126.170215
-1264.079049 -2088.000000 -126.838852
-1265.963969 -2088.000000 -127.507489
-1267.848889 -2088.000000 -128.176126
-1269.733810 -2088.000000 -128.844764
-1271.618730 -2088.000000 -129.513401
-1273.503650 -2088.000000 -130.182038
-1275.388570 -2088.000000 -130.850675
-1277.273491 -2088.000000 -131.519313
-1279.158411 -2088.000000 -132.187950
-1281.043331 -2088.000000 -132.856587
-1282.928251 -2088.000000 -133.525224
-1284.813171 -2088.000000 -134.193861
-1286.698092 -2088.000000 -134.862499
-1288.583012 -2088.000000 -135.531136
-1290.467932 -2088.000000 -136.199773
-1292.352852 -2088.000000 -136.868410
-1294.237773 -2088.000000 -137.537048
-1296.122693 -2088.000000 -138.205685
-1298.007613 -2088.000000 -138.874322
-1299.892533 -2088.000000 -139.542959
-1301.777453 -2088.000000 -140.211597
-1303.662374 -2088.000000 -140.880234
-1305.547294 -2088.000000 -141.548871
-1307.432214 -2088.000000 -142.217508
-1309.317134 -2088.000000 -142.886146
-1311.202055 -2088.000000 -143.554783
-1313.086975 -2088.000000 -144.223420
-1314.971895 -2088.000000 -144.892057
-1316.856815 -2088.000000 -145.560695
-1318.741735 -2088.000000 -146.229332
-1320.626656 -2088.000000 -146.897969
-1322.511576 -2088.000000 -147.566606
-1324.396496 -2088.000000 -148.235244
-1326.281416 -2088.000000 -148.903881
-1328.166337 -2088.000000 -149.572518
-1330.051257 -2088.000000 -150.241155
-1331.936177 -2088.000000 -150.909793
-1333.821097 -2088.000000 -151.578430
-1335.706017 -2088.000000 -152.247067
-1337.590938 -2088.000000 -152.915704
-1339.475858 -2088.000000 -153.584341
-1341.360778 -2088.000000 -154.252979
-1343.245698 -2088.000000 -154.921616
-1345.130619 -2088.000000 -155.590253
-1347.015539 -2088.000000 -156.258890
-1348.900459 -2088.000000 -156.927528
-1350.785379 -2088.000000 -157.596165
-1352.670299 -2088.000000 -158.264802
-1354.555220 -2088.000000 -158.933439
-1356.440140 -2088.000000 -159.602077
-1358.325060 -2088.000000 -160.270714
-1360.209980 -2088.000000 -160.939351
-1362.094901 -2088.000000 -161.607988
-1363.979821 -2088.000000 -162.276626
-1365.864741 -2088.000000 -162.945263
-1367.749661 -2088.000000 -163.613900
-1369.634581 -2088.000000 -164.282537
-1371.519502 -2088.000000 -164.951175
-1373.404422 -2088.000000 -165.619812
-1375.289342 -2088.000000 -166.288449
-1377.174262 -2088.000000 -166.957086
-1379.059183 -2088.000000 -167.625724
-1380.944103 -2088.000000 -168.294361
-1382.829023 -2088.000000 -168.962998
-1384.713943 -2088.000000 -169.631635
-1386.598863 -2088.000000 -170.300272
-1388.483784 -2088.000000 -170.968910
-1390.368704 -2088.000000 -171.637547
-1392.253624 -2088.000000 -172.306184
-1394.138544 -2088.000000 -172.974821
-1396.023465 -2088.000000 -173.643459
-1397.908385 -2088.000000 -174.312096
-1399.793305 -2088.000000 -174.980733
-1401.678225 -2088.000000 -175.649370
-1403.563145 -2088.000000 -176.318008
-1405.448066 -2088.000000 -176.986645
-1407.332986 -2088.000000 -177.655282
-1409.217906 -2088.000000 -178.323919
-1411.102826 -2088.000000 -178.992557
-1412.987747 -2088.000000 -179.661194
-1414.872667 -2088.000000 -180.329831
-1416.757587 -2088.000000 -180.998468
-1418.642507 -2088.000000 -181.667106
-1420.527427 -2088.000000 -182.335743
-1422.412348 -2088.000000 -183.004380
-1424.297268 -2088.000000 -183.673017
-1426.182188 -2088.000000 -184.341655
-1428.067108 -2088.000000 -185.010292
-1429.952028 -2088.000000 -185.678929
-1431.836949 -2088.000000 -186.347566
-1433.721869 -2088.000000 -187.016204
-1435.606789 -2088.000000 -187.684841
-1437.491709 -2088.000000 -188.353478
-1439.376630 -2088.000000 -189.022115
-1441.261550 -2088.000000 -189.690752
-1443.146470 -2088.000000 -190.359390
-1445.031390 -2088.000000 -191.028027
-1446.916310 -2088.000000 -191.696664
-1448.801231 -2088.000000 -192.365301
-1450.686151 -2088.000000 -193.033939
-1452.571071 -2088.000000 -193.702576
-1454.455991 -2088.000000 -194.371213
-1456.340912 -2088.000000 -195.039850
-1458.225832 -2088.000000 -195.708488
-1460.110752 -2088.000000 -196.377125
-1461.995672 -2088.000000 -197.045762
-1463.880592 -2088.000000 -197.714399
-1465.765513 -2088.000000 -198.383037
-1467.650433 -2088.000000 -199.051674
-1469.535353 -2088.000000 -199.720311
-1471.420273 -2088.000000 -200.388948
-1473.305194 -2088.000000 -201.057586
-1475.190114 -2088.000000 -201.726223
-1477.075034 -2088.000000 -202.394860
-1478.959954 -2088.000000 -203.063497
-1480.844874 -2088.000000 -203.732135
-1482.729795 -2088.000000 -204.400772
-1484.614715 -2088.000000 -205.069409
-1486.499635 -2088.000000 -205.738046
-1488.384555 -2088.000000 -206.406683
-1490.269476 -2088.000000 -207.075321
-1492.154396 -2088.000000 -207.743958
-1494.039316 -2088.000000 -208.412595
-1495.924236 -2088.000000 -209.081232
-1497.809156 -2088.000000 -209.749870
-1499.694077 -2088.000000 -210.418507
-1501.578997 -2088.000000 -211.087144
-1503.463917 -2088.000000 -211.755781
-1505.348837 -2088.000000 -212.424419
-1507.233758 -2088.000000 -213.093056
-1509.118678 -2088.000000 -213.761693
-1511.003598 -2088.000000 -214.430330
-1512.888518 -2088.000000 -215.098968
-1514.773438 -2088.000000 -215.767605
-1516.658359 -2088.000000 -216.436242
-1518.543279 -2088.000000 -217.104879
-1520.428199 -2088.000000 -217.773517
-1522.313119 -2088.000000 -218.442154
-1524.198040 -2088.000000 -219.110791
-1526.082960 -2088.000000 -219.779428
-1527.967880 -2088.000000 -220.448066
-1529.852800 -2088.000000 -221.116703
-1531.737720 -2088.000000 -221.785340
-1533.622641 -2088.000000 -222.453977
-1535.507561 -2088.000000 -223.122615
-1537.392481 -2088.000000 -223.791252
-1539.277401 -2088.000000 -224.459889
-1541.162322 -2088.000000 -225.128526
-1543.047242 -2088.000000 -225.797163
-1544.932162 -2088.000000 -226.465801
-1546.817082 -2088.000000 -227.134438
-1548.702002 -2088.000000 -227.803075
-1550.586923 -2088.000000 -228.471712
-1552.471843 -2088.000000 -229.140350
-1554.356763 -2088.000000 -229.808987
-1556.241683 -2088.000000 -230.477624
-1558.126604 -2088.000000 -231.146261
-1560.011524 -2088.000000 -231.814899
-1561.896444 -2088.000000 -232.483536
-1563.781364 -2088.000000 -233.152173
-1565.666284 -2088.000000 -233.820810
-1567.551205 -2088.000000 -234.489448
-1569.436125 -2088.000000 -235.158085
-1571.321045 -2088.000000 -235.826722
-1573.205965 -2088.000000 -236.495359
-1575.090886 -2088.000000 -237.163997
-1576.975806 -2088.000000 -237.832634
-1578.860726 -2088.000000 -238.501271
-1580.745646 -2088.000000 -239.169908
-1582.630566 -2088.000000 -239.838546
-1584.515487 -2088.000000 -240.507183
-1586.400407 -2088.000000 -241.175820
-1588.285327 -2088.000000 -241.844457
-1590.170247 -2088.000000 -242.513094
-1592.055168 -2088.000000 -243.181732
-1593.940088 -2088.000000 -243.850369
-1595.825008 -2088.000000 -244.519006
-1597.709928 -2088.000000 -245.187643
-1599.594848 -2088.000000 -245.856281
-1601.479769 -2088.000000 -246.524918
-1603.364689 -2088.000000 -247.193555
-1605.249609 -2088.000000 -247.862192
-1607.134529 -2088.000000 -248.530830
-1609.019450 -2088.000000 -249.199467
-1610.904370 -2088.000000 -249.868104
-1612.789290 -2088.000000 -250.536741
-1614.674210 -2088.000000 -251.205379
-1616.559130 -2088.000000 -251.874016
-1618.444051 -2088.000000 -252.542653
-1620.328971 -2088.000000 -253.211290
-1622.213891 -2088.000000 -253.879928
-1624.098811 -2088.000000 -254.548565
-1625.983732 -2088.000000 -255.217202
-1627.868652 -2088.000000 -255.885839
-1629.753572 -2088.000000 -256.554477
-1631.638492 -2088.000000 -257.223114
-1633.523412 -2088.000000 -257.891751
-1635.408333 -2088.000000 -258.560388
-1637.293253 -2088.000000 -259.229025
-1639.178173 -2088.000000 -259.897663
-1641.063093 -2088.000000 -260.566300
-1642.948013 -2088.000000 -261.234937
-1644.832934 -2088.000000 -261.903574
-1646.717854 -2088.000000 -262.572212
-1648.602774 -2088.000000 -263.240849
-1650.487694 -2088.000000 -263.909486
-1652.372615 -2088.000000 -264.578123
-1654.257535 -2088.000000 -265.246761
-1656.142455 -2088.000000 -265.915398
-1658.027375 -2088.000000 -266.584035
-1659.912295 -2088.000000 -267.252672
-1661.797216 -2088.000000 -267.921310
-1663.682136 -2088.000000 -268.589947
-1665.567056 -2088.000000 -269.258584
-1667.451976 -2088.000000 -269.927221
-1669.336897 -2088.000000 -270.595859
-1671.221817 -2088.000000 -271.264496
-1673.106737 -2088.000000 -271.933133
-1674.991657 -2088.000000 -272.601770
-1676.876577 -2088.000000 -273.270408
-1678.761498 -2088.000000 -273.939045
-1680.646418 -2088.000000 -274.607682
-1682.531338 -2088.000000 -275.276319
-1684.416258 -2088.000000 -275.944957
-1686.301179 -2088.000000 -276.613594
-1688.186099 -2088.000000 -277.282231
-1690.071019 -2088.000000 -277.950868
-1691.955939 -2088.000000 -278.619505
-1693.840859 -2088.000000 -279.288143
-1695.725780 -2088.000000 -279.956780
-1697.610700 -2088.000000 -280.625417
-1699.495620 -2088.000000 -281.294054
-1701.380540 -2088.000000 -281.962692
-1703.265461 -2088.000000 -282.631329
-1705.150381 -2088.000000 -283.299966
-1707.035301 -2088.000000 -283.968603
-1708.920221 -2088.000000 -284.637241
-1710.805141 -2088.000000 -285.305878
-1712.690062 -2088.000000 -285.974515
-1714.574982 -2088.000000 -286.643152
-1716.459902 -2088.000000 -287.311790
-1718.344822 -2088.000000 -287.980427
-1720.229743 -2088.000000 -288.649064
-1722.114663 -2088.000000 -289.317701
-1723.999583 -2088.000000 -289.986339
-1725.884503 -2088.000000 -290.654976
-1727.769423 -2088.000000 -291.323613
-1729.654344 -2088.000000 -291.992250
-1731.539264 -2088.000000 -292.660888
-1733.424184 -2088.000000 -293.329525
-1735.309104 -2088.000000 -293.998162
-1737.194025 -2088.000000 -294.666799
-1739.078945 -2088.000000 -295.335436
-1740.963865 -2088.000000 -296.004074
-1742.848785 -2088.000000 -296.672711
-1744.733705 -2088.000000 -297.341348
-1746.618626 -2088.000000 -298.009985
-1748.503546 -2088.000000 -298.678623
-1750.388466 -2088.000000 -299.347260
-1752.273386 -2088.000000 -300.015897
-1754.158307 -2088.000000 -300.684534
-1756.043227 -2088.000000 -301.353172
-1757.928147 -2088.000000 -302.021809
-1759.813067 -2088.000000 -302.690446
-1761.697987 -2088.000000 -303.359083
-1763.582908 -2088.000000 -304.027721
-1765.467828 -2088.000000 -304.696358
-1767.352748 -2088.000000 -305.364995
-1769.237668 -2088.000000 -306.033632
-1771.122589 -2088.000000 -306.702270
-1773.007509 -2088.000000 -307.370907
-1774.892429 -2088.000000 -308.039544
-1776.777349 -2088.000000 -308.708181
-1778.662269 -2088.000000 -309.376819
-1780.547190 -2088.000000 -310.045456
-1782.432110 -2088.000000 -310.714093
-1784.317030 -2088.000000 -311.382730
-1786.201950 -2088.000000 -312.051368
-1788.086871 -2088.000000 -312.720005
-1789.971791 -2088.000000 -313.388642
-1791.856711 -2088.000000 -314.057279
-1793.741631 -2088.000000 -314.725916
-1795.626551 -2088.000000 -315.394554
-1797.511472 -2088.000000 -316.063191
-1799.396392 -2088.000000 -316.731828
-1801.281312 -2088.000000 -317.400465
-1803.166232 -2088.000000 -318.069103
-1805.051153 -2088.000000 -318.737740
-1806.936073 -2088.000000 -319.406377
-1808.820993 -2088.000000 -320.075014
-1810.705913 -2088.000000 -320.743652
-1812.590833 -2088.000000 -321.412289
-1814.475754 -2088.000000 -322.080926
-1816.360674 -2088.000000 -322.749563
-1818.245594 -2088.000000 -323.418201
-1820.130514 -2088.000000 -324.086838
-1822.015435 -2088.000000 -324.755475
-1823.900355 -2088.000000 -325.424112
-1825.785275 -2088.000000 -326.092750
-1827.670195 -2088.000000 -326.761387
-1829.555115 -2088.000000 -327.430024
-1831.440036 -2088.000000 -328.098661
-1833.324956 -2088.000000 -328.767299
-1835.209876 -2088.000000 -329.435936
-1837.094796 -2088.000000 -330.104573
-1838.979717 -2088.000000 -330.773210
-1840.864637 -2088.000000 -331.441847
-1842.749557 -2088.000000 -332.110485
-1844.634477 -2088.000000 -332.779122
-1846.519397 -2088.000000 -333.447759
-1848.404318 -2088.000000 -334.116396
-1850.289238 -2088.000000 -334.785034
-1852.174158 -2088.000000 -335.453671
-1854.059078 -2088.000000 -336.122308
-1855.943998 -2088.000000 -336.790945
-1857.828919 -2088.000000 -337.459583
-1859.713839 -2088.000000 -338.128220
-1861.598759 -2088.000000 -338.796857
-1863.483679 -2088.000000 -339.465494
-1865.368600 -2088.000000 -340.134132
-1867.253520 -2088.000000 -340.802769
-1869.138440 -2088.000000 -341.471406
-1871.023360 -2088.000000 -342.140043
-1872.908280 -2088.000000 -342.808681
-1874.793201 -2088.000000 -343.477318
-1876.678121 -2088.000000 -344.145955
-1878.563041 -2088.000000 -344.814592
-1880.447961 -2088.000000 -345.483230
-1882.332882 -2088.000000 -346.151867
-1884.217802 -2088.000000 -346.820504
-1886.102722 -2088.000000 -347.489141
-1887.987642 -2088.000000 -348.157779
-1889.872562 -2088.000000 -348.826416
-1891.757483 -2088.000000 -349.495053
-1893.642403 -2088.000000 -350.163690
-1895.527323 -2088.000000 -350.832327
-1897.412243 -2088.000000 -351.500965
-1899.297164 -2088.000000 -352.169602
-1901.182084 -2088.000000 -352.838239
-1903.067004 -2088.000000 -353.506876
-1904.951924 -2088.000000 -354.175514
-1906.836844 -2088.000000 -354.844151
-1908.721765 -2088.000000 -355.512788
-1910.606685 -2088.000000 -356.181425
-1912.491605 -2088.000000 -356.850063
-1914.376525 -2088.000000 -357.518700
-1916.261446 -2088.000000 -358.187337
-1918.146366 -2088.000000 -358.855974
-1920.031286 -2088.000000 -359.524612
-1921.916206 -2088.000000 -360.193249
-1923.801126 -2088.000000 -360.861886
-1925.686047 -2088.000000 -361.530523
-1927.570967 -2088.000000 -362.199161
-1929.455887 -2088.000000 -362.867798
-1931.340807 -2088.000000 -363.536435
-1933.225728 -2088.000000 -364.205072
-1935.110648 -2088.000000 -364.873710
-1936.995568 -2088.000000 -365.542347
-1938.880488 -2088.000000 -366.210984
-1940.765408 -2088.000000 -366.879621
-1942.650329 -2088.000000 -367.548258
-1944.535249 -2088.000000 -368.216896
-1946.420169 -2088.000000 -368.885533
-1948.305089 -2088.000000 -369.554170
-1950.190010 -2088.000000 -370.222807
-1952.074930 -2088.000000 -370.891445
-1953.959850 -2088.000000 -371.560082
-1955.844770 -2088.000000 -372.228719
-1957.729690 -2088.000000 -372.897356
-1959.614611 -2088.000000 -373.565994
-1961.499531 -2088.000000 -374.234631
-1963.384451 -2088.000000 -374.903268
-1965.269371 -2088.000000 -375.571905
-1967.154292 -2088.000000 -376.240543
-1969.039212 -2088.000000 -376.909180
-1970.924132 -2088.000000 -377.577817
-1972.809052 -2088.000000 -378.246454
-1974.693972 -2088.000000 -378.915092
-1976.578893 -2088.000000 -379.583729
-1978.463813 -2088.000000 -380.252366
-1980.348733 -2088.000000 -380.921003
-1982.233653 -2088.000000 -381.589641
-1984.118574 -2088.000000 -382.258278
-1986.003494 -2088.000000 -382.926915
-1987.888414 -2088.000000 -383.595552
-1989.773334 -2088.000000 -384.264189
-1991.658254 -2088.000000 -384.932827
-1993.543175 -2088.000000 -385.601464
-1995.428095 -2088.000000 -386.270101
-1997.313015 -2088.000000 -386.938738
-1999.197935 -2088.000000 -387.607376
-2001.082856 -2088.000000 -388.276013
-2002.967776 -2088.000000 -388.944650
-2004.852696 -2088.000000 -389.613287
-2006.737616 -2088.000000 -390.281925
-2008.622536 -2088.000000 -390.950562
-2010.507457 -2088.000000 -391.619199
-2012.392377 -2088.000000 -392.287836
-2014.277297 -2088.000000 -392.956474
-2016.162217 -2088.000000 -393.625111
-2018.047138 -2088.000000 -394.293748
-2019.932058 -2088.000000 -394.962385
-2021.816978 -2088.000000 -395.631023
-2023.701898 -2088.000000 -396.299660
-2025.586818 -2088.000000 -396.968297
-2027.471739 -2088.000000 -397.636934
-2029.356659 -2088.000000 -398.305572
-2031.241579 -2088.000000 -398.974209
-2033.126499 -2088.000000 -399.642846
-2035.011420 -2088.000000 -400.311483
-2036.896340 -2088.000000 -400.980121
-2038.781260 -2088.000000 -401.648758
-2040.666180 -2088.000000 -402.317395
-2042.551100 -2088.000000 -402.986032
-2044.436021 -2088.000000 -403.654669
-2046.320941 -2088.000000 -404.323307
-2048.205861 -2088.000000 -404.991944
-2050.090781 -2088.000000 -405.660581
-2051.975702 -2088.000000 -406.329218
-2053.860622 -2088.000000 -406.997856
-2055.745542 -2088.000000 -407.666493
-2057.630462 -2088.000000 -408.335130
-2059.515382 -2088.000000 -409.003767
-2061.400303 -2088.000000 -409.672405
-2063.285223 -2088.000000 -410.341042
-2065.170143 -2088.000000 -411.009679
-2067.055063 -2088.000000 -411.678316
-2068.939983 -2088.000000 -412.346954
-2070.824904 -2088.000000 -413.015591
-2072.709824 -2088.000000 -413.684228
-2074.594744 -2088.000000 -414.352865
-2076.479664 -2088.000000 -415.021503
-2078.364585 -2088.000000 -415.690140
-2080.249505 -2088.000000 -416.358777
-2082.134425 -2088.000000 -417.027414
-2084.019345 -2088.000000 -417.696052
-2085.904265 -2088.000000 -418.364689
-2087.789186 -2088.000000 -419.033326
-2089.674106 -2088.000000 -419.701963
-2091.559026 -2088.000000 -420.370600
-2093.443946 -2088.000000 -421.039238
-2095.328867 -2088.000000 -421.707875
-2097.213787 -2088.000000 -422.376512
-2099.098707 -2088.000000 -423.045149
-2100.983627 -2088.000000 -423.713787
-2102.868547 -2088.000000 -424.382424
-2104.753468 -2088.000000 -425.051061
-2106.638388 -2088.000000 -425.719698
-2108.523308 -2088.000000 -426.388336
-2110.408228 -2088.000000 -427.056973
-2112.293149 -2088.000000 -427.725610
-2114.178069 -2088.000000 -428.394247
-2116.062989 -2088.000000 -429.062885
-2117.947909 -2088.000000 -429.731522
-2119.832829 -2088.000000 -430.400159
-2121.717750 -2088.000000 -431.068796
-2123.602670 -2088.000000 -431.737434
-2125.487590 -2088.000000 -432.406071
-2127.372510 -2088.000000 -433.074708
-2129.257431 -2088.000000 -433.743345
-2131.142351 -2088.000000 -434.411983
-2133.027271 -2088.000000 -435.080620
-2134.912191 -2088.000000 -435.749257
-2136.797111 -2088.000000 -436.417894
-2138.682032 -2088.000000 -437.086532
-2140.566952 -2088.000000 -437.755169
-2142.451872 -2088.000000 -438.423806
-2144.336792 -2088.000000 -439.092443
-2146.221713 -2088.000000 -439.761080
-2148.106633 -2088.000000 -440.429718
-2149.991553 -2088.000000 -441.098355
-2151.876473 -2088.000000 -441.766992
-2153.761393 -2088.000000 -442.435629
-2155.646314 -2088.000000 -443.104267
-2157.531234 -2088.000000 -443.772904
-2159.416154 -2088.000000 -444.441541
-2161.301074 -2088.000000 -445.110178
-2163.185995 -2088.000000 -445.778816
-2165.070915 -2088.000000 -446.447453
-2166.955835 -2088.000000 -447.116090
-2168.840755 -2088.000000 -447.784727
-2170.725675 -2088.000000 -448.453365
-2172.610596 -2088.000000 -449.122002
-2174.495516 -2088.000000 -449.790639
-2176.380436 -2088.000000 -450.459276
-2178.265356 -2088.000000 -451.127914
-2180.150277 -2088.000000 -451.796551
-2182.035197 -2088.000000 -452.465188
-2183.920117 -2088.000000 -453.133825
-2185.805037 -2088.000000 -453.802463
-2187.689957 -2088.000000 -454.471100
-2189.574878 -2088.000000 -455.139737
-2192.000000 -2088.000000 -456.000000
-2193.674043 -2088.000000 -457.094339
-2195.348087 -2088.000000 -458.188679
-2197.022130 -2088.000000 -459.283018
-2198.696174 -2088.000000 -460.377357
-2200.370217 -2088.000000 -461.471697
-2202.044261 -2088.000000 -462.566036
-2203.718304 -2088.000000 -463.660375
-2205.392347 -2088.000000 -464.754715
