13384.833333 -20239.582729 -214.090929
13384.833333 -20238.814201 -215.937375
13384.833333 -20238.045672 -217.783822
13384.833333 -20237.277144 -219.630268
13384.833333 -20236.508616 -221.476715
13384.833333 -20235.740088 -223.323161
13384.833333 -20234.971560 -225.169608
13384.833333 -20234.203032 -227.016054
13384.833333 -20233.434504 -228.862501
13384.833333 -20232.665976 -230.708947
13384.833333 -20231.897448 -232.555394
13384.833333 -20231.128919 -234.401840
13384.833333 -20230.360391 -236.248287
13384.833333 -20229.591863 -238.094733
13384.833333 -20228.823335 -239.941179
13384.833333 -20228.054807 -241.787626
13384.833333 -20227.286279 -243.634072
13384.833333 -20226.517751 -245.480519
13384.833333 -20225.749223 -247.326965
13384.833333 -20224.980694 -249.173412
13384.833333 -20224.000000 -251.529604
13383.903730 -20224.000000 -253.300433
13382.974126 -20224.000000 -255.071263
13382.044522 -20224.000000 -256.842092
13381.114918 -20224.000000 -258.612922
13380.185315 -20224.000000 -260.383751
13379.255711 -20224.000000 -262.154580
13378.326107 -20224.000000 -263.925410
13377.396503 -20224.000000 -265.696239
13376.466900 -20224.000000 -267.467069
13375.537296 -20224.000000 -269.237898
13374.607692 -20224.000000 -271.008728
13373.678088 -20224.000000 -272.779557
13372.748484 -20224.000000 -274.550386
13371.818881 -20224.000000 -276.321216
13370.889277 -20224.000000 -278.092045
13369.959673 -20224.000000 -279.862875
13369.030069 -20224.000000 -281.633704
13368.100466 -20224.000000 -283.404534
13367.170862 -20224.000000 -285.175363
13366.241258 -20224.000000 -286.946192
13365.311654 -20224.000000 -288.717022
13364.382051 -20224.000000 -290.487851
13363.452447 -20224.000000 -292.258681
13362.522843 -20224.000000 -294.029510
13361.593239 -20224.000000 -295.800340
13360.663636 -20224.000000 -297.571169
13359.734032 -20224.000000 -299.341998
13358.804428 -20224.000000 -301.112828
13357.874824 -20224.000000 -302.883657
13356.945221 -20224.000000 -304.654487
13356.015617 -20224.000000 -306.425316
13355.086013 -20224.000000 -308.196146
13354.156409 -20224.000000 -309.966975
13353.226806 -20224.000000 -311.737804
13352.297202 -20224.000000 -313.508634
13351.367598 -20224.000000 -315.279463
13350.437994 -20224.000000 -317.050293
13349.508391 -20224.000000 -318.821122
13348.578787 -20224.000000 -320.591952
13347.649183 -20224.000000 -322.362781
13346.719579 -20224.000000 -324.133610
13345.789976 -20224.000000 -325.904440
13344.860372 -20224.000000 -327.675269
13343.930768 -20224.000000 -329.446099
13343.001164 -20224.000000 -331.216928
13342.071561 -20224.000000 -332.987758
13341.141957 -20224.000000 -334.758587
13340.212353 -20224.000000 -336.529416
13339.282749 -20224.000000 -338.300246
13338.353145 -20224.000000 -340.071075
13337.423542 -20224.000000 -341.841905
13336.493938 -20224.000000 -343.612734
13335.564334 -20224.000000 -345.383563
13334.634730 -20224.000000 -347.154393
13333.705127 -20224.000000 -348.925222
13332.775523 -20224.000000 -350.696052
13331.845919 -20224.000000 -352.466881
13330.916315 -20224.000000 -354.237711
13329.986712 -20224.000000 -356.008540
13329.057108 -20224.000000 -357.779369
13328.127504 -20224.000000 -359.550199
13327.197900 -20224.000000 -361.321028
13326.268297 -20224.000000 -363.091858
13325.338693 -20224.000000 -364.862687
13324.409089 -20224.000000 -366.633517
13323.479485 -20224.000000 -368.404346
13322.549882 -20224.000000 -370.175175
13321.620278 -20224.000000 -371.946005
13320.690674 -20224.000000 -373.716834
13319.761070 -20224.000000 -375.487664
13318.831467 -20224.000000 -377.258493
13317.901863 -20224.000000 -379.029323
13316.972259 -20224.000000 -380.800152
13316.042655 -20224.000000 -382.570981
13315.113052 -20224.000000 -384.341811
13314.183448 -20224.000000 -386.112640
13313.253844 -20224.000000 -387.883470
13312.324240 -20224.000000 -389.654299
13311.394637 -20224.000000 -391.425129
13310.465033 -20224.000000 -393.195958
13309.535429 -20224.000000 -394.966787
13308.605825 -20224.000000 -396.737617
13307.676222 -20224.000000 -398.508446
13306.746618 -20224.000000 -400.279276
13305.817014 -20224.000000 -402.050105
13304.887410 -20224.000000 -403.820935
13303.957806 -20224.000000 -405.591764
13303.028203 -20224.000000 -407.362593
13302.098599 -20224.000000 -409.133423
13301.168995 -20224.000000 -410.904252
13300.239391 -20224.000000 -412.675082
13299.309788 -20224.000000 -414.445911
13298.380184 -20224.000000 -416.216741
13297.450580 -20224.000000 -417.987570
13296.520976 -20224.000000 -419.758399
13295.591373 -20224.000000 -421.529229
13294.661769 -20224.000000 -423.300058
13293.732165 -20224.000000 -425.070888
13292.802561 -20224.000000 -426.841717
13291.872958 -20224.000000 -428.612547
13290.943354 -20224.000000 -430.383376
13290.013750 -20224.000000 -432.154205
13289.084146 -20224.000000 -433.925035
13288.154543 -20224.000000 -435.695864
13287.224939 -20224.000000 -437.466694
13286.295335 -20224.000000 -439.237523
13285.365731 -20224.000000 -441.008352
13284.436128 -20224.000000 -442.779182
13283.506524 -20224.000000 -444.550011
13282.576920 -20224.000000 -446.320841
13281.647316 -20224.000000 -448.091670
13280.717713 -20224.000000 -449.862500
13279.788109 -20224.000000 -451.633329
13278.858505 -20224.000000 -453.404158
13277.928901 -20224.000000 -455.174988
13276.999298 -20224.000000 -456.945817
13276.069694 -20224.000000 -458.716647
13275.140090 -20224.000000 -460.487476
13274.210486 -20224.000000 -462.258306
13273.280883 -20224.000000 -464.029135
13272.351279 -20224.000000 -465.799964
13271.421675 -20224.000000 -467.570794
13270.492071 -20224.000000 -469.341623
13269.562467 -20224.000000 -471.112453
13268.632864 -20224.000000 -472.883282
13267.703260 -20224.000000 -474.654112
13266.773656 -20224.000000 -476.424941
13265.844052 -20224.000000 -478.195770
13264.914449 -20224.000000 -479.966600
13263.984845 -20224.000000 -481.737429
13263.055241 -20224.000000 -483.508259
13262.125637 -20224.000000 -485.279088
13261.196034 -20224.000000 -487.049918
13260.266430 -20224.000000 -488.820747
13259.336826 -20224.000000 -490.591576
13258.407222 -20224.000000 -492.362406
13257.477619 -20224.000000 -494.133235
13256.548015 -20224.000000 -495.904065
13255.618411 -20224.000000 -497.674894
13254.688807 -20224.000000 -499.445724
13253.759204 -20224.000000 -501.216553
13252.829600 -20224.000000 -502.987382
13251.899996 -20224.000000 -504.758212
13250.970392 -20224.000000 -506.529041
13250.040789 -20224.000000 -508.299871
13249.111185 -20224.000000 -510.070700
13248.181581 -20224.000000 -511.841530
13247.251977 -20224.000000 -513.612359
13246.322374 -20224.000000 -515.383188
13245.392770 -20224.000000 -517.154018
13244.463166 -20224.000000 -518.924847
13243.533562 -20224.000000 -520.695677
13242.603959 -20224.000000 -522.466506
13241.674355 -20224.000000 -524.237335
13240.744751 -20224.000000 -526.008165
13239.815147 -20224.000000 -527.778994
13238.885544 -20224.000000 -529.549824
13237.955940 -20224.000000 -531.320653
13237.026336 -20224.000000 -533.091483
13236.096732 -20224.000000 -534.862312
13235.167128 -20224.000000 -536.633141
13234.237525 -20224.000000 -538.403971
13233.307921 -20224.000000 -540.174800
13232.378317 -20224.000000 -541.945630
13231.448713 -20224.000000 -543.716459
13230.519110 -20224.000000 -545.487289
13229.589506 -20224.000000 -547.258118
13228.659902 -20224.000000 -549.028947
13227.730298 -20224.000000 -550.799777
13226.800695 -20224.000000 -552.570606
13225.871091 -20224.000000 -554.341436
13224.941487 -20224.000000 -556.112265
13224.011883 -20224.000000 -557.883095
13223.082280 -20224.000000 -559.653924
13222.152676 -20224.000000 -561.424753
13221.223072 -20224.000000 -563.195583
13220.293468 -20224.000000 -564.966412
13219.363865 -20224.000000 -566.737242
13218.434261 -20224.000000 -568.508071
13217.504657 -20224.000000 -570.278901
13216.575053 -20224.000000 -572.049730
13215.645450 -20224.000000 -573.820559
13214.715846 -20224.000000 -575.591389
13213.786242 -20224.000000 -577.362218
13212.856638 -20224.000000 -579.133048
13211.927035 -20224.000000 -580.903877
13210.997431 -20224.000000 -582.674707
13210.067827 -20224.000000 -584.445536
13209.138223 -20224.000000 -586.216365
13208.208620 -20224.000000 -587.987195
13207.279016 -20224.000000 -589.758024
13206.349412 -20224.000000 -591.528854
13205.419808 -20224.000000 -593.299683
13204.490205 -20224.000000 -595.070513
13203.560601 -20224.000000 -596.841342
13202.630997 -20224.000000 -598.612171
13201.701393 -20224.000000 -600.383001
13200.771789 -20224.000000 -602.153830
13199.842186 -20224.000000 -603.924660
13198.912582 -20224.000000 -605.695489
13197.982978 -20224.000000 -607.466319
13197.053374 -20224.000000 -609.237148
13196.123771 -20224.000000 -611.007977
13195.194167 -20224.000000 -612.778807
13194.264563 -20224.000000 -614.549636
13193.334959 -20224.000000 -616.320466
13192.405356 -20224.000000 -618.091295
13191.475752 -20224.000000 -619.862124
13190.546148 -20224.000000 -621.632954
13189.616544 -20224.000000 -623.403783
13188.686941 -20224.000000 -625.174613
13187.757337 -20224.000000 -626.945442
13186.827733 -20224.000000 -628.716272
13185.898129 -20224.000000 -630.487101
13184.968526 -20224.000000 -632.257930
13184.038922 -20224.000000 -634.028760
13183.109318 -20224.000000 -635.799589
13182.179714 -20224.000000 -637.570419
13181.250111 -20224.000000 -639.341248
13180.320507 -20224.000000 -641.112078
13179.390903 -20224.000000 -642.882907
13178.461299 -20224.000000 -644.653736
13177.531696 -20224.000000 -646.424566
13176.602092 -20224.000000 -648.195395
13175.672488 -20224.000000 -649.966225
13174.742884 -20224.000000 -651.737054
13173.813281 -20224.000000 -653.507884
13172.883677 -20224.000000 -655.278713
13171.954073 -20224.000000 -657.049542
13171.024469 -20224.000000 -658.820372
13170.094866 -20224.000000 -660.591201
13169.165262 -20224.000000 -662.362031
13168.235658 -20224.000000 -664.132860
13167.306054 -20224.000000 -665.903690
13166.376450 -20224.000000 -667.674519
13165.446847 -20224.000000 -669.445348
13164.517243 -20224.000000 -671.216178
13163.587639 -20224.000000 -672.987007
13162.658035 -20224.000000 -674.757837
13161.728432 -20224.000000 -676.528666
13160.798828 -20224.000000 -678.299496
13159.869224 -20224.000000 -680.070325
13158.939620 -20224.000000 -681.841154
13158.010017 -20224.000000 -683.611984
13157.080413 -20224.000000 -685.382813
13156.150809 -20224.000000 -687.153643
13155.221205 -20224.000000 -688.924472
13154.291602 -20224.000000 -690.695302
13153.361998 -20224.000000 -692.466131
13152.432394 -20224.000000 -694.236960
13151.502790 -20224.000000 -696.007790
13150.573187 -20224.000000 -697.778619
13149.643583 -20224.000000 -699.549449
13148.713979 -20224.000000 -701.320278
13147.784375 -20224.000000 -703.091108
13146.854772 -20224.000000 -704.861937
13145.925168 -20224.000000 -706.632766
13144.995564 -20224.000000 -708.403596
13144.065960 -20224.000000 -710.174425
13143.136357 -20224.000000 -711.945255
13142.206753 -20224.000000 -713.716084
13141.277149 -20224.000000 -715.486913
13140.347545 -20224.000000 -717.257743
13139.417942 -20224.000000 -719.028572
13138.488338 -20224.000000 -720.799402
13137.558734 -20224.000000 -722.570231
13136.629130 -20224.000000 -724.341061
13135.699527 -20224.000000 -726.111890
13134.769923 -20224.000000 -727.882719
13133.840319 -20224.000000 -729.653549
13132.910715 -20224.000000 -731.424378
13131.981111 -20224.000000 -733.195208
13131.051508 -20224.000000 -734.966037
13130.121904 -20224.000000 -736.736867
13129.192300 -20224.000000 -738.507696
13128.262696 -20224.000000 -740.278525
13127.333093 -20224.000000 -742.049355
13126.403489 -20224.000000 -743.820184
13125.473885 -20224.000000 -745.591014
13124.544281 -20224.000000 -747.361843
13123.614678 -20224.000000 -749.132673
13122.685074 -20224.000000 -750.903502
13121.755470 -20224.000000 -752.674331
13120.825866 -20224.000000 -754.445161
13119.896263 -20224.000000 -756.215990
13118.966659 -20224.000000 -757.986820
13118.037055 -20224.000000 -759.757649
13117.107451 -20224.000000 -761.528479
13116.177848 -20224.000000 -763.299308
13115.248244 -20224.000000 -765.070137
13114.318640 -20224.000000 -766.840967
13113.389036 -20224.000000 -768.611796
13112.459433 -20224.000000 -770.382626
13111.529829 -20224.000000 -772.153455
13110.600225 -20224.000000 -773.924285
13109.670621 -20224.000000 -775.695114
13108.741018 -20224.000000 -777.465943
13107.811414 -20224.000000 -779.236773
13106.881810 -20224.000000 -781.007602
13105.952206 -20224.000000 -782.778432
13105.022603 -20224.000000 -784.549261
13104.092999 -20224.000000 -786.320091
13103.163395 -20224.000000 -788.090920
13102.233791 -20224.000000 -789.861749
13101.304188 -20224.000000 -791.632579
13100.374584 -20224.000000 -793.403408
13099.444980 -20224.000000 -795.174238
13098.515376 -20224.000000 -796.945067
13097.585772 -20224.000000 -798.715897
13096.656169 -20224.000000 -800.486726
13095.726565 -20224.000000 -802.257555
13094.796961 -20224.000000 -804.028385
13093.867357 -20224.000000 -805.799214
13092.937754 -20224.000000 -807.570044
13092.008150 -20224.000000 -809.340873
13091.078546 -20224.000000 -811.111702
13090.148942 -20224.000000 -812.882532
13089.219339 -20224.000000 -814.653361
13088.289735 -20224.000000 -816.424191
13087.360131 -20224.000000 -818.195020
13086.430527 -20224.000000 -819.965850
13085.500924 -20224.000000 -821.736679
13084.571320 -20224.000000 -823.507508
13083.641716 -20224.000000 -825.278338
13082.712112 -20224.000000 -827.049167
13081.782509 -20224.000000 -828.819997
13080.852905 -20224.000000 -830.590826
13079.923301 -20224.000000 -832.361656
13078.993697 -20224.000000 -834.132485
13078.064094 -20224.000000 -835.903314
13077.134490 -20224.000000 -837.674144
13076.204886 -20224.000000 -839.444973
13075.275282 -20224.000000 -841.215803
13074.345679 -20224.000000 -842.986632
13073.416075 -20224.000000 -844.757462
13072.486471 -20224.000000 -846.528291
13071.556867 -20224.000000 -848.299120
13070.627264 -20224.000000 -850.069950
13069.697660 -20224.000000 -851.840779
13068.768056 -20224.000000 -853.611609
13067.838452 -20224.000000 -855.382438
13066.908849 -20224.000000 -857.153268
13065.979245 -20224.000000 -858.924097
13065.049641 -20224.000000 -860.694926
13064.120037 -20224.000000 -862.465756
13063.190433 -20224.000000 -864.236585
13062.260830 -20224.000000 -866.007415
13061.331226 -20224.000000 -867.778244
13060.401622 -20224.000000 -869.549074
13059.472018 -20224.000000 -871.319903
13058.542415 -20224.000000 -873.090732
13057.612811 -20224.000000 -874.861562
13056.683207 -20224.000000 -876.632391
13055.753603 -20224.000000 -878.403221
13054.824000 -20224.000000 -880.174050
13053.894396 -20224.000000 -881.944880
13052.964792 -20224.000000 -883.715709
13052.035188 -20224.000000 -885.486538
13051.105585 -20224.000000 -887.257368
13050.175981 -20224.000000 -889.028197
13049.246377 -20224.000000 -890.799027
13048.316773 -20224.000000 -892.569856
13047.387170 -20224.000000 -894.340685
13046.457566 -20224.000000 -896.111515
13045.527962 -20224.000000 -897.882344
13044.598358 -20224.000000 -899.653174
13043.668755 -20224.000000 -901.424003
13042.739151 -20224.000000 -903.194833
13041.809547 -20224.000000 -904.965662
13040.879943 -20224.000000 -906.736491
13039.950340 -20224.000000 -908.507321
13039.020736 -20224.000000 -910.278150
13038.091132 -20224.000000 -912.048980
13037.161528 -20224.000000 -913.819809
13036.231925 -20224.000000 -915.590639
13035.302321 -20224.000000 -917.361468
13034.372717 -20224.000000 -919.132297
13033.443113 -20224.000000 -920.903127
13032.513510 -20224.000000 -922.673956
13031.583906 -20224.000000 -924.444786
13030.654302 -20224.000000 -926.215615
13029.724698 -20224.000000 -927.986445
13028.795094 -20224.000000 -929.757274
13027.865491 -20224.000000 -931.528103
13026.935887 -20224.000000 -933.298933
13026.006283 -20224.000000 -935.069762
13025.076679 -20224.000000 -936.840592
13024.147076 -20224.000000 -938.611421
13023.217472 -20224.000000 -940.382251
13022.287868 -20224.000000 -942.153080
13021.358264 -20224.000000 -943.923909
13020.428661 -20224.000000 -945.694739
13019.499057 -20224.000000 -947.465568
13018.569453 -20224.000000 -949.236398
13017.639849 -20224.000000 -951.007227
13016.710246 -20224.000000 -952.778057
13015.780642 -20224.000000 -954.548886
13014.851038 -20224.000000 -956.319715
13013.921434 -20224.000000 -958.090545
13012.991831 -20224.000000 -959.861374
13012.062227 -20224.000000 -961.632204
13011.132623 -20224.000000 -963.403033
13010.203019 -20224.000000 -965.173863
13009.273416 -20224.000000 -966.944692
13008.343812 -20224.000000 -968.715521
13007.414208 -20224.000000 -970.486351
13006.484604 -20224.000000 -972.257180
13005.555001 -20224.000000 -974.028010
13004.625397 -20224.000000 -975.798839
13003.695793 -20224.000000 -977.569669
13002.766189 -20224.000000 -979.340498
13001.836586 -20224.000000 -981.111327
13000.906982 -20224.000000 -982.882157
12999.977378 -20224.000000 -984.652986
12999.047774 -20224.000000 -986.423816
12998.118171 -20224.000000 -988.194645
12997.188567 -20224.000000 -989.965474
12996.258963 -20224.000000 -991.736304
12995.329359 -20224.000000 -993.507133
12994.399755 -20224.000000 -995.277963
12993.470152 -20224.000000 -997.048792
12992.540548 -20224.000000 -998.819622
12991.610944 -20224.000000 -1000.590451
12990.681340 -20224.000000 -1002.361280
12989.751737 -20224.000000 -1004.132110
12988.822133 -20224.000000 -1005.902939
12987.892529 -20224.000000 -1007.673769
12986.962925 -20224.000000 -1009.444598
12986.033322 -20224.000000 -1011.215428
12985.103718 -20224.000000 -1012.986257
12984.174114 -20224.000000 -1014.757086
12983.244510 -20224.000000 -1016.527916
12982.314907 -20224.000000 -1018.298745
12981.385303 -20224.000000 -1020.069575
12980.455699 -20224.000000 -1021.840404
12979.526095 -20224.000000 -1023.611234
12978.596492 -20224.000000 -1025.382063
12977.666888 -20224.000000 -1027.152892
12976.737284 -20224.000000 -1028.923722
12975.807680 -20224.000000 -1030.694551
12974.878077 -20224.000000 -1032.465381
12973.948473 -20224.000000 -1034.236210
12973.018869 -20224.000000 -1036.007040
12972.089265 -20224.000000 -1037.777869
12971.159662 -20224.000000 -1039.548698
12970.230058 -20224.000000 -1041.319528
12969.300454 -20224.000000 -1043.090357
12968.370850 -20224.000000 -1044.861187
12967.441247 -20224.000000 -1046.632016
12966.511643 -20224.000000 -1048.402846
12965.582039 -20224.000000 -1050.173675
12964.652435 -20224.000000 -1051.944504
12963.722832 -20224.000000 -1053.715334
12962.793228 -20224.000000 -1055.486163
12961.863624 -20224.000000 -1057.256993
12960.934020 -20224.000000 -1059.027822
12960.004416 -20224.000000 -1060.798652
12959.074813 -20224.000000 -1062.569481
12958.145209 -20224.000000 -1064.340310
12957.215605 -20224.000000 -1066.111140
12956.286001 -20224.000000 -1067.881969
12955.356398 -20224.000000 -1069.652799
12954.426794 -20224.000000 -1071.423628
12953.497190 -20224.000000 -1073.194458
12952.567586 -20224.000000 -1074.965287
12951.637983 -20224.000000 -1076.736116
12950.708379 -20224.000000 -1078.506946
12949.778775 -20224.000000 -1080.277775
12948.849171 -20224.000000 -1082.048605
12947.919568 -20224.000000 -1083.819434
12946.989964 -20224.000000 -1085.590263
12946.060360 -20224.000000 -1087.361093
12945.130756 -20224.000000 -1089.131922
12944.201153 -20224.000000 -1090.902752
12943.271549 -20224.000000 -1092.673581
12942.341945 -20224.000000 -1094.444411
12941.412341 -20224.000000 -1096.215240
12940.482738 -20224.000000 -1097.986069
12939.553134 -20224.000000 -1099.756899
12938.623530 -20224.000000 -1101.527728
12937.693926 -20224.000000 -1103.298558
12936.764323 -20224.000000 -1105.069387
12935.834719 -20224.000000 -1106.840217
12934.905115 -20224.000000 -1108.611046
12933.975511 -20224.000000 -1110.381875
12933.045908 -20224.000000 -1112.152705
12932.116304 -20224.000000 -1113.923534
12931.186700 -20224.000000 -1115.694364
12930.257096 -20224.000000 -1117.465193
12929.327493 -20224.000000 -1119.236023
12928.000000 -20224.000000 -1121.764802
12927.199406 -20225.832346 -1121.804268
12926.398812 -20227.664692 -1121.843734
12925.598217 -20229.497038 -1121.883200
12924.797623 -20231.329383 -1121.922666
12923.997029 -20233.161729 -1121.962132
12923.196435 -20234.994075 -1122.001597
12922.395841 -20236.826421 -1122.041063
12921.595246 -20238.658767 -1122.080529
12920.794652 -20240.491113 -1122.119995
12919.994058 -20242.323459 -1122.159461
12919.193464 -20244.155805 -1122.198927
12918.392870 -20245.988150 -1122.238393
12917.592275 -20247.820496 -1122.277859
12916.791681 -20249.652842 -1122.317325
12915.991087 -20251.485188 -1122.356791
12915.190493 -20253.317534 -1122.396257
12914.389899 -20255.149880 -1122.435722
12913.589305 -20256.982226 -1122.475188
12912.788710 -20258.814571 -1122.514654
12911.988116 -20260.646917 -1122.554120
12911.187522 -20262.479263 -1122.593586
12910.386928 -20264.311609 -1122.633052
12909.586334 -20266.143955 -1122.672518
12908.785739 -20267.976301 -1122.711984
12907.985145 -20269.808647 -1122.751450
12907.184551 -20271.640993 -1122.790916
12906.383957 -20273.473338 -1122.830382
12905.583363 -20275.305684 -1122.869847
12904.782768 -20277.138030 -1122.909313
12903.982174 -20278.970376 -1122.948779
12903.181580 -20280.802722 -1122.988245
12902.380986 -20282.635068 -1123.027711
12901.580392 -20284.467414 -1123.067177
12900.779797 -20286.299759 -1123.106643
12899.979203 -20288.132105 -1123.146109
12899.178609 -20289.964451 -1123.185575
12898.378015 -20291.796797 -1123.225041
12897.577421 -20293.629143 -1123.264507
12896.776826 -20295.461489 -1123.303972
12895.976232 -20297.293835 -1123.343438
12895.175638 -20299.126181 -1123.382904
12894.375044 -20300.958526 -1123.422370
12893.574450 -20302.790872 -1123.461836
12892.773855 -20304.623218 -1123.501302
12891.973261 -20306.455564 -1123.540768
12891.172667 -20308.287910 -1123.580234
12890.372073 -20310.120256 -1123.619700
12889.571479 -20311.952602 -1123.659166
12888.770884 -20313.784948 -1123.698632
12887.970290 -20315.617293 -1123.738098
12887.169696 -20317.449639 -1123.777563
12886.369102 -20319.281985 -1123.817029
12885.568508 -20321.114331 -1123.856495
12884.767914 -20322.946677 -1123.895961
12883.967319 -20324.779023 -1123.935427
12883.166725 -20326.611369 -1123.974893
12882.366131 -20328.443714 -1124.014359
12881.565537 -20330.276060 -1124.053825
12880.764943 -20332.108406 -1124.093291
12879.964348 -20333.940752 -1124.132757
12879.163754 -20335.773098 -1124.172223
12878.363160 -20337.605444 -1124.211688
12877.562566 -20339.437790 -1124.251154
12876.761972 -20341.270136 -1124.290620
12875.961377 -20343.102481 -1124.330086
12875.160783 -20344.934827 -1124.369552
12874.360189 -20346.767173 -1124.409018
12873.559595 -20348.599519 -1124.448484
12872.759001 -20350.431865 -1124.487950
12871.958406 -20352.264211 -1124.527416
12871.157812 -20354.096557 -1124.566882
12870.357218 -20355.928902 -1124.606348
12869.556624 -20357.761248 -1124.645813
12868.756030 -20359.593594 -1124.685279
12867.955435 -20361.425940 -1124.724745
12867.154841 -20363.258286 -1124.764211
12866.354247 -20365.090632 -1124.803677
12865.553653 -20366.922978 -1124.843143
12864.753059 -20368.755324 -1124.882609
12863.952464 -20370.587669 -1124.922075
12863.151870 -20372.420015 -1124.961541
12862.351276 -20374.252361 -1125.001007
12861.550682 -20376.084707 -1125.040473
12860.750088 -20377.917053 -1125.079938
12859.949493 -20379.749399 -1125.119404
12859.148899 -20381.581745 -1125.158870
12858.348305 -20383.414090 -1125.198336
12857.547711 -20385.246436 -1125.237802
12856.747117 -20387.078782 -1125.277268
12855.946523 -20388.911128 -1125.316734
12855.145928 -20390.743474 -1125.356200
12854.345334 -20392.575820 -1125.395666
12853.544740 -20394.408166 -1125.435132
12852.744146 -20396.240512 -1125.474598
12851.943552 -20398.072857 -1125.514064
12851.142957 -20399.905203 -1125.553529
12850.342363 -20401.737549 -1125.592995
12849.541769 -20403.569895 -1125.632461
12848.741175 -20405.402241 -1125.671927
12847.940581 -20407.234587 -1125.711393
12847.139986 -20409.066933 -1125.750859
12846.339392 -20410.899278 -1125.790325
12845.538798 -20412.731624 -1125.829791
12844.738204 -20414.563970 -1125.869257
12843.937610 -20416.396316 -1125.908723
12843.137015 -20418.228662 -1125.948189
12842.336421 -20420.061008 -1125.987654
12841.535827 -20421.893354 -1126.027120
12840.735233 -20423.725700 -1126.066586
12839.934639 -20425.558045 -1126.106052
12839.134044 -20427.390391 -1126.145518
12838.333450 -20429.222737 -1126.184984
12837.532856 -20431.055083 -1126.224450
12836.732262 -20432.887429 -1126.263916
12835.931668 -20434.719775 -1126.303382
12835.131073 -20436.552121 -1126.342848
12834.330479 -20438.384466 -1126.382314
12833.529885 -20440.216812 -1126.421779
12832.729291 -20442.049158 -1126.461245
12831.928697 -20443.881504 -1126.500711
12831.128102 -20445.713850 -1126.540177
12830.327508 -20447.546196 -1126.579643
12829.526914 -20449.378542 -1126.619109
12828.726320 -20451.210888 -1126.658575
12827.925726 -20453.043233 -1126.698041
12827.125132 -20454.875579 -1126.737507
12826.324537 -20456.707925 -1126.776973
12825.523943 -20458.540271 -1126.816439
12824.723349 -20460.372617 -1126.855904
12823.922755 -20462.204963 -1126.895370
12823.122161 -20464.037309 -1126.934836
12822.321566 -20465.869654 -1126.974302
12821.520972 -20467.702000 -1127.013768
12820.720378 -20469.534346 -1127.053234
12819.919784 -20471.366692 -1127.092700
12819.119190 -20473.199038 -1127.132166
12818.318595 -20475.031384 -1127.171632
12817.518001 -20476.863730 -1127.211098
12816.717407 -20478.696076 -1127.250564
12815.916813 -20480.528421 -1127.290029
12815.116219 -20482.360767 -1127.329495
12814.315624 -20484.193113 -1127.368961
12813.515030 -20486.025459 -1127.408427
12812.714436 -20487.857805 -1127.447893
12811.913842 -20489.690151 -1127.487359
12811.113248 -20491.522497 -1127.526825
12810.312653 -20493.354843 -1127.566291
12809.512059 -20495.187188 -1127.605757
12808.711465 -20497.019534 -1127.645223
12807.910871 -20498.851880 -1127.684689
12807.110277 -20500.684226 -1127.724155
12806.309682 -20502.516572 -1127.763620
12805.509088 -20504.348918 -1127.803086
12804.708494 -20506.181264 -1127.842552
12803.907900 -20508.013609 -1127.882018
12803.107306 -20509.845955 -1127.921484
12802.306711 -20511.678301 -1127.960950
12801.506117 -20513.510647 -1128.000416
12800.705523 -20515.342993 -1128.039882
12799.904929 -20517.175339 -1128.079348
12799.104335 -20519.007685 -1128.118814
12798.303741 -20520.840031 -1128.158280
12797.503146 -20522.672376 -1128.197745
12796.702552 -20524.504722 -1128.237211
12795.901958 -20526.337068 -1128.276677
12795.101364 -20528.169414 -1128.316143
12794.300770 -20530.001760 -1128.355609
12793.500175 -20531.834106 -1128.395075
12792.699581 -20533.666452 -1128.434541
12791.898987 -20535.498797 -1128.474007
12791.098393 -20537.331143 -1128.513473
12790.297799 -20539.163489 -1128.552939
12789.497204 -20540.995835 -1128.592405
12788.696610 -20542.828181 -1128.631870
12787.896016 -20544.660527 -1128.671336
12787.095422 -20546.492873 -1128.710802
12786.294828 -20548.325219 -1128.750268
12785.494233 -20550.157564 -1128.789734
12784.693639 -20551.989910 -1128.829200
12783.893045 -20553.822256 -1128.868666
12783.092451 -20555.654602 -1128.908132
12782.291857 -20557.486948 -1128.947598
12781.491262 -20559.319294 -1128.987064
12780.690668 -20561.151640 -1129.026530
12779.890074 -20562.983985 -1129.065995
12779.089480 -20564.816331 -1129.105461
12778.288886 -20566.648677 -1129.144927
12777.488291 -20568.481023 -1129.184393
12776.687697 -20570.313369 -1129.223859
12775.887103 -20572.145715 -1129.263325
12775.086509 -20573.978061 -1129.302791
12774.285915 -20575.810407 -1129.342257
12773.485320 -20577.642752 -1129.381723
12772.684726 -20579.475098 -1129.421189
12771.884132 -20581.307444 -1129.460655
12771.083538 -20583.139790 -1129.500121
12770.282944 -20584.972136 -1129.539586
12769.482350 -20586.804482 -1129.579052
12768.681755 -20588.636828 -1129.618518
12767.881161 -20590.469173 -1129.657984
12767.080567 -20592.301519 -1129.697450
12766.279973 -20594.133865 -1129.736916
12765.479379 -20595.966211 -1129.776382
12764.678784 -20597.798557 -1129.815848
12763.878190 -20599.630903 -1129.855314
12763.077596 -20601.463249 -1129.894780
12762.277002 -20603.295595 -1129.934246
12761.476408 -20605.127940 -1129.973711
12760.675813 -20606.960286 -1130.013177
12759.875219 -20608.792632 -1130.052643
12759.074625 -20610.624978 -1130.092109
12758.274031 -20612.457324 -1130.131575
12757.473437 -20614.289670 -1130.171041
12756.672842 -20616.122016 -1130.210507
12755.872248 -20617.954361 -1130.249973
12755.071654 -20619.786707 -1130.289439
12754.271060 -20621.619053 -1130.328905
12753.470466 -20623.451399 -1130.368371
12752.669871 -20625.283745 -1130.407836
12751.869277 -20627.116091 -1130.447302
12751.068683 -20628.948437 -1130.486768
12750.268089 -20630.780783 -1130.526234
12749.467495 -20632.613128 -1130.565700
12748.666900 -20634.445474 -1130.605166
12747.866306 -20636.277820 -1130.644632
12747.065712 -20638.110166 -1130.684098
12746.265118 -20639.942512 -1130.723564
12745.464524 -20641.774858 -1130.763030
12744.663929 -20643.607204 -1130.802496
12743.863335 -20645.439550 -1130.841961
12743.062741 -20647.271895 -1130.881427
12742.262147 -20649.104241 -1130.920893
12741.461553 -20650.936587 -1130.960359
12740.660959 -20652.768933 -1130.999825
12739.860364 -20654.601279 -1131.039291
12739.059770 -20656.433625 -1131.078757
12738.259176 -20658.265971 -1131.118223
12737.458582 -20660.098316 -1131.157689
12736.657988 -20661.930662 -1131.197155
12735.857393 -20663.763008 -1131.236621
12735.056799 -20665.595354 -1131.276087
12734.256205 -20667.427700 -1131.315552
12733.455611 -20669.260046 -1131.355018
12732.655017 -20671.092392 -1131.394484
12731.854422 -20672.924738 -1131.433950
12731.053828 -20674.757083 -1131.473416
12730.253234 -20676.589429 -1131.512882
12729.452640 -20678.421775 -1131.552348
12728.652046 -20680.254121 -1131.591814
12727.851451 -20682.086467 -1131.631280
12727.050857 -20683.918813 -1131.670746
12726.250263 -20685.751159 -1131.710212
12725.449669 -20687.583504 -1131.749677
12724.649075 -20689.415850 -1131.789143
12723.848480 -20691.248196 -1131.828609
12723.047886 -20693.080542 -1131.868075
12722.247292 -20694.912888 -1131.907541
12721.446698 -20696.745234 -1131.947007
12720.646104 -20698.577580 -1131.986473
12719.845509 -20700.409926 -1132.025939
12719.044915 -20702.242271 -1132.065405
12718.244321 -20704.074617 -1132.104871
12717.443727 -20705.906963 -1132.144337
12716.643133 -20707.739309 -1132.183802
12715.842538 -20709.571655 -1132.223268
12715.041944 -20711.404001 -1132.262734
12714.241350 -20713.236347 -1132.302200
12713.440756 -20715.068692 -1132.341666
12712.640162 -20716.901038 -1132.381132
12711.839568 -20718.733384 -1132.420598
12711.038973 -20720.565730 -1132.460064
12710.238379 -20722.398076 -1132.499530
12709.437785 -20724.230422 -1132.538996
12708.637191 -20726.062768 -1132.578462
12707.836597 -20727.895114 -1132.617927
12707.036002 -20729.727459 -1132.657393
12706.235408 -20731.559805 -1132.696859
12705.434814 -20733.392151 -1132.736325
12704.634220 -20735.224497 -1132.775791
12703.833626 -20737.056843 -1132.815257
12703.033031 -20738.889189 -1132.854723
12702.232437 -20740.721535 -1132.894189
12701.431843 -20742.553880 -1132.933655
12700.631249 -20744.386226 -1132.973121
12699.830655 -20746.218572 -1133.012587
12699.030060 -20748.050918 -1133.052053
12698.229466 -20749.883264 -1133.091518
12697.428872 -20751.715610 -1133.130984
12696.628278 -20753.547956 -1133.170450
12695.827684 -20755.380302 -1133.209916
12695.027089 -20757.212647 -1133.249382
12694.226495 -20759.044993 -1133.288848
12693.425901 -20760.877339 -1133.328314
12692.625307 -20762.709685 -1133.367780
12691.824713 -20764.542031 -1133.407246
12691.024118 -20766.374377 -1133.446712
12690.223524 -20768.206723 -1133.486178
12689.422930 -20770.039068 -1133.525643
12688.622336 -20771.871414 -1133.565109
12687.821742 -20773.703760 -1133.604575
12687.021147 -20775.536106 -1133.644041
12686.220553 -20777.368452 -1133.683507
12685.419959 -20779.200798 -1133.722973
12684.619365 -20781.033144 -1133.762439
12683.818771 -20782.865490 -1133.801905
12683.018177 -20784.697835 -1133.841371
12682.217582 -20786.530181 -1133.880837
12681.416988 -20788.362527 -1133.920303
12680.616394 -20790.194873 -1133.959768
12679.815800 -20792.027219 -1133.999234
12679.015206 -20793.859565 -1134.038700
12678.214611 -20795.691911 -1134.078166
12677.414017 -20797.524256 -1134.117632
12676.613423 -20799.356602 -1134.157098
12675.812829 -20801.188948 -1134.196564
12675.012235 -20803.021294 -1134.236030
12674.211640 -20804.853640 -1134.275496
12673.411046 -20806.685986 -1134.314962
12672.610452 -20808.518332 -1134.354428
12671.809858 -20810.350678 -1134.393893
12671.009264 -20812.183023 -1134.433359
12670.208669 -20814.015369 -1134.472825
12669.408075 -20815.847715 -1134.512291
12668.607481 -20817.680061 -1134.551757
12667.806887 -20819.512407 -1134.591223
12667.006293 -20821.344753 -1134.630689
12666.205698 -20823.177099 -1134.670155
12665.405104 -20825.009445 -1134.709621
12664.604510 -20826.841790 -1134.749087
12663.803916 -20828.674136 -1134.788553
12663.003322 -20830.506482 -1134.828018
12662.202727 -20832.338828 -1134.867484
12661.402133 -20834.171174 -1134.906950
12660.601539 -20836.003520 -1134.946416
12659.800945 -20837.835866 -1134.985882
12659.000351 -20839.668211 -1135.025348
12658.199756 -20841.500557 -1135.064814
12657.399162 -20843.332903 -1135.104280
12656.598568 -20845.165249 -1135.143746
12655.797974 -20846.997595 -1135.183212
12654.997380 -20848.829941 -1135.222678
12654.196786 -20850.662287 -1135.262144
12653.396191 -20852.494633 -1135.301609
12652.595597 -20854.326978 -1135.341075
12651.795003 -20856.159324 -1135.380541
12650.994409 -20857.991670 -1135.420007
12650.193815 -20859.824016 -1135.459473
12649.393220 -20861.656362 -1135.498939
12648.592626 -20863.488708 -1135.538405
12647.792032 -20865.321054 -1135.577871
12646.991438 -20867.153399 -1135.617337
12646.190844 -20868.985745 -1135.656803
12645.390249 -20870.818091 -1135.696269
12644.000000 -20874.000000 -1135.764802
12643.576586 -20872.045334 -1135.764802
12643.153171 -20870.090667 -1135.764802
12642.729757 -20868.136001 -1135.764802
12642.306343 -20866.181335 -1135.764802
12641.882928 -20864.226669 -1135.764802
12641.459514 -20862.272002 -1135.764802
12641.036099 -20860.317336 -1135.764802
12640.612685 -20858.362670 -1135.764802
12640.189271 -20856.408003 -1135.764802
12639.765856 -20854.453337 -1135.764802
12639.342442 -20852.498671 -1135.764802
12638.919028 -20850.544005 -1135.764802
12638.495613 -20848.589338 -1135.764802
12638.072199 -20846.634672 -1135.764802
12637.648785 -20844.680006 -1135.764802
12637.225370 -20842.725339 -1135.764802
12636.801956 -20840.770673 -1135.764802
12636.378542 -20838.816007 -1135.764802
12635.955127 -20836.861341 -1135.764802
12635.531713 -20834.906674 -1135.764802
12635.108298 -20832.952008 -1135.764802
12634.684884 -20830.997342 -1135.764802
12634.261470 -20829.042675 -1135.764802
12633.838055 -20827.088009 -1135.764802
12633.414641 -20825.133343 -1135.764802
12632.991227 -20823.178677 -1135.764802
12632.567812 -20821.224010 -1135.764802
12632.144398 -20819.269344 -1135.764802
12631.720984 -20817.314678 -1135.764802
12631.297569 -20815.360011 -1135.764802
12630.874155 -20813.405345 -1135.764802
12630.450741 -20811.450679 -1135.764802
12630.027326 -20809.496013 -1135.764802
12629.603912 -20807.541346 -1135.764802
12629.180497 -20805.586680 -1135.764802
12628.757083 -20803.632014 -1135.764802
12628.333669 -20801.677347 -1135.764802
12627.910254 -20799.722681 -1135.764802
12627.486840 -20797.768015 -1135.764802
12627.063426 -20795.813349 -1135.764802
12626.640011 -20793.858682 -1135.764802
12626.216597 -20791.904016 -1135.764802
12625.793183 -20789.949350 -1135.764802
12625.369768 -20787.994684 -1135.764802
12624.946354 -20786.040017 -1135.764802
12624.522940 -20784.085351 -1135.764802
12624.099525 -20782.130685 -1135.764802
12623.676111 -20780.176018 -1135.764802
12623.252696 -20778.221352 -1135.764802
12622.829282 -20776.266686 -1135.764802
12622.405868 -20774.312020 -1135.764802
12621.982453 -20772.357353 -1135.764802
12621.559039 -20770.402687 -1135.764802
12621.135625 -20768.448021 -1135.764802
12620.712210 -20766.493354 -1135.764802
12620.288796 -20764.538688 -1135.764802
12619.865382 -20762.584022 -1135.764802
12619.441967 -20760.629356 -1135.764802
12619.018553 -20758.674689 -1135.764802
12618.595139 -20756.720023 -1135.764802
12618.171724 -20754.765357 -1135.764802
12617.748310 -20752.810690 -1135.764802
12617.324895 -20750.856024 -1135.764802
12616.901481 -20748.901358 -1135.764802
12616.478067 -20746.946692 -1135.764802
12616.054652 -20744.992025 -1135.764802
12615.631238 -20743.037359 -1135.764802
12615.207824 -20741.082693 -1135.764802
12614.784409 -20739.128026 -1135.764802
12614.360995 -20737.173360 -1135.764802
12613.937581 -20735.218694 -1135.764802
12613.514166 -20733.264028 -1135.764802
12613.090752 -20731.309361 -1135.764802
12612.667337 -20729.354695 -1135.764802
12612.243923 -20727.400029 -1135.764802
12611.820509 -20725.445362 -1135.764802
12611.397094 -20723.490696 -1135.764802
12610.973680 -20721.536030 -1135.764802
12610.550266 -20719.581364 -1135.764802
12610.126851 -20717.626697 -1135.764802
12609.703437 -20715.672031 -1135.764802
12609.280023 -20713.717365 -1135.764802
12608.856608 -20711.762698 -1135.764802
12608.433194 -20709.808032 -1135.764802
12608.009780 -20707.853366 -1135.764802
12607.586365 -20705.898700 -1135.764802
12607.162951 -20703.944033 -1135.764802
12606.739536 -20701.989367 -1135.764802
12606.316122 -20700.034701 -1135.764802
12605.892708 -20698.080034 -1135.764802
12605.469293 -20696.125368 -1135.764802
12605.045879 -20694.170702 -1135.764802
12604.622465 -20692.216036 -1135.764802
12604.199050 -20690.261369 -1135.764802
12603.775636 -20688.306703 -1135.764802
12603.352222 -20686.352037 -1135.764802
12602.928807 -20684.397370 -1135.764802
12602.505393 -20682.442704 -1135.764802
12602.081979 -20680.488038 -1135.764802
12601.658564 -20678.533372 -1135.764802
12601.235150 -20676.578705 -1135.764802
12600.811735 -20674.624039 -1135.764802
12600.388321 -20672.669373 -1135.764802
12599.964907 -20670.714706 -1135.764802
12599.541492 -20668.760040 -1135.764802
12599.118078 -20666.805374 -1135.764802
12598.694664 -20664.850708 -1135.764802
12598.271249 -20662.896041 -1135.764802
12597.847835 -20660.941375 -1135.764802
12597.424421 -20658.986709 -1135.764802
12597.001006 -20657.032042 -1135.764802
12596.577592 -20655.077376 -1135.764802
12596.154178 -20653.122710 -1135.764802
12595.730763 -20651.168044 -1135.764802
12595.307349 -20649.213377 -1135.764802
12594.883934 -20647.258711 -1135.764802
12594.460520 -20645.304045 -1135.764802
12594.037106 -20643.349379 -1135.764802
12593.613691 -20641.394712 -1135.764802
12593.190277 -20639.440046 -1135.764802
12592.766863 -20637.485380 -1135.764802
12592.343448 -20635.530713 -1135.764802
12591.920034 -20633.576047 -1135.764802
12591.496620 -20631.621381 -1135.764802
12591.073205 -20629.666715 -1135.764802
12590.649791 -20627.712048 -1135.764802
12590.226377 -20625.757382 -1135.764802
12589.802962 -20623.802716 -1135.764802
12589.379548 -20621.848049 -1135.764802
12588.956133 -20619.893383 -1135.764802
12588.532719 -20617.938717 -1135.764802
12588.109305 -20615.984051 -1135.764802
12587.685890 -20614.029384 -1135.764802
12587.262476 -20612.074718 -1135.764802
12586.839062 -20610.120052 -1135.764802
12586.415647 -20608.165385 -1135.764802
12585.992233 -20606.210719 -1135.764802
12585.568819 -20604.256053 -1135.764802
12585.145404 -20602.301387 -1135.764802
12584.721990 -20600.346720 -1135.764802
12584.298575 -20598.392054 -1135.764802
12583.875161 -20596.437388 -1135.764802
12583.451747 -20594.482721 -1135.764802
12583.028332 -20592.528055 -1135.764802
12582.604918 -20590.573389 -1135.764802
12582.181504 -20588.618723 -1135.764802
12581.758089 -20586.664056 -1135.764802
12581.334675 -20584.709390 -1135.764802
12580.911261 -20582.754724 -1135.764802
12580.487846 -20580.800057 -1135.764802
12580.064432 -20578.845391 -1135.764802
12579.641018 -20576.890725 -1135.764802
12579.217603 -20574.936059 -1135.764802
12578.794189 -20572.981392 -1135.764802
12578.370774 -20571.026726 -1135.764802
12577.947360 -20569.072060 -1135.764802
12577.523946 -20567.117393 -1135.764802
12577.100531 -20565.162727 -1135.764802
12576.677117 -20563.208061 -1135.764802
12576.253703 -20561.253395 -1135.764802
12575.830288 -20559.298728 -1135.764802
12575.406874 -20557.344062 -1135.764802
12574.983460 -20555.389396 -1135.764802
12574.560045 -20553.434729 -1135.764802
12574.136631 -20551.480063 -1135.764802
12573.713217 -20549.525397 -1135.764802
12573.289802 -20547.570731 -1135.764802
12572.866388 -20545.616064 -1135.764802
12572.442973 -20543.661398 -1135.764802
12572.019559 -20541.706732 -1135.764802
12571.596145 -20539.752065 -1135.764802
12571.172730 -20537.797399 -1135.764802
12570.749316 -20535.842733 -1135.764802
12570.325902 -20533.888067 -1135.764802
12569.902487 -20531.933400 -1135.764802
12569.479073 -20529.978734 -1135.764802
12569.055659 -20528.024068 -1135.764802
12568.632244 -20526.069401 -1135.764802
12568.208830 -20524.114735 -1135.764802
12567.785416 -20522.160069 -1135.764802
12567.362001 -20520.205403 -1135.764802
12566.938587 -20518.250736 -1135.764802
12566.515172 -20516.296070 -1135.764802
12566.091758 -20514.341404 -1135.764802
12565.668344 -20512.386737 -1135.764802
12565.244929 -20510.432071 -1135.764802
12564.821515 -20508.477405 -1135.764802
12564.398101 -20506.522739 -1135.764802
12563.974686 -20504.568072 -1135.764802
12563.551272 -20502.613406 -1135.764802
12563.127858 -20500.658740 -1135.764802
12562.704443 -20498.704073 -1135.764802
12562.281029 -20496.749407 -1135.764802
12561.857615 -20494.794741 -1135.764802
12561.434200 -20492.840075 -1135.764802
12561.010786 -20490.885408 -1135.764802
12560.587371 -20488.930742 -1135.764802
12560.163957 -20486.976076 -1135.764802
12559.740543 -20485.021410 -1135.764802
12559.317128 -20483.066743 -1135.764802
12558.893714 -20481.112077 -1135.764802
12558.470300 -20479.157411 -1135.764802
12558.046885 -20477.202744 -1135.764802
12557.623471 -20475.248078 -1135.764802
12557.200057 -20473.293412 -1135.764802
12556.776642 -20471.338746 -1135.764802
12556.353228 -20469.384079 -1135.764802
12555.929813 -20467.429413 -1135.764802
12555.506399 -20465.474747 -1135.764802
12555.082985 -20463.520080 -1135.764802
12554.659570 -20461.565414 -1135.764802
12554.236156 -20459.610748 -1135.764802
12553.812742 -20457.656082 -1135.764802
12553.389327 -20455.701415 -1135.764802
12552.965913 -20453.746749 -1135.764802
12552.542499 -20451.792083 -1135.764802
12552.119084 -20449.837416 -1135.764802
12551.695670 -20447.882750 -1135.764802
12551.272256 -20445.928084 -1135.764802
12550.848841 -20443.973418 -1135.764802
12550.425427 -20442.018751 -1135.764802
12550.002012 -20440.064085 -1135.764802
12549.578598 -20438.109419 -1135.764802
12549.155184 -20436.154752 -1135.764802
12548.731769 -20434.200086 -1135.764802
12548.308355 -20432.245420 -1135.764802
12547.884941 -20430.290754 -1135.764802
12547.461526 -20428.336087 -1135.764802
12547.038112 -20426.381421 -1135.764802
12546.614698 -20424.426755 -1135.764802
12546.191283 -20422.472088 -1135.764802
12545.767869 -20420.517422 -1135.764802
12545.344455 -20418.562756 -1135.764802
12544.921040 -20416.608090 -1135.764802
12544.497626 -20414.653423 -1135.764802
12544.074211 -20412.698757 -1135.764802
12543.650797 -20410.744091 -1135.764802
12543.227383 -20408.789424 -1135.764802
12542.803968 -20406.834758 -1135.764802
12542.380554 -20404.880092 -1135.764802
12541.957140 -20402.925426 -1135.764802
12541.533725 -20400.970759 -1135.764802
12541.110311 -20399.016093 -1135.764802
12540.686897 -20397.061427 -1135.764802
12540.263482 -20395.106760 -1135.764802
12539.840068 -20393.152094 -1135.764802
12539.416654 -20391.197428 -1135.764802
12538.993239 -20389.242762 -1135.764802
12538.569825 -20387.288095 -1135.764802
12538.146410 -20385.333429 -1135.764802
12537.722996 -20383.378763 -1135.764802
12537.299582 -20381.424096 -1135.764802
12536.876167 -20379.469430 -1135.764802
12536.452753 -20377.514764 -1135.764802
12536.029339 -20375.560098 -1135.764802
12535.605924 -20373.605431 -1135.764802
12535.182510 -20371.650765 -1135.764802
12534.759096 -20369.696099 -1135.764802
12534.335681 -20367.741432 -1135.764802
12533.912267 -20365.786766 -1135.764802
12533.488853 -20363.832100 -1135.764802
12533.065438 -20361.877434 -1135.764802
12532.642024 -20359.922767 -1135.764802
12532.218609 -20357.968101 -1135.764802
12531.795195 -20356.013435 -1135.764802
12531.371781 -20354.058768 -1135.764802
12530.948366 -20352.104102 -1135.764802
12530.524952 -20350.149436 -1135.764802
12530.101538 -20348.194770 -1135.764802
12529.678123 -20346.240103 -1135.764802
12529.254709 -20344.285437 -1135.764802
12528.831295 -20342.330771 -1135.764802
12528.407880 -20340.376105 -1135.764802
12527.984466 -20338.421438 -1135.764802
12527.561051 -20336.466772 -1135.764802
12527.137637 -20334.512106 -1135.764802
12526.714223 -20332.557439 -1135.764802
12526.290808 -20330.602773 -1135.764802
12525.867394 -20328.648107 -1135.764802
12525.443980 -20326.693441 -1135.764802
12525.020565 -20324.738774 -1135.764802
12524.597151 -20322.784108 -1135.764802
12524.173737 -20320.829442 -1135.764802
12523.750322 -20318.874775 -1135.764802
12523.326908 -20316.920109 -1135.764802
12522.903494 -20314.965443 -1135.764802
12522.480079 -20313.010777 -1135.764802
12522.056665 -20311.056110 -1135.764802
12521.633250 -20309.101444 -1135.764802
12521.209836 -20307.146778 -1135.764802
12520.786422 -20305.192111 -1135.764802
12520.363007 -20303.237445 -1135.764802
12519.939593 -20301.282779 -1135.764802
12519.516179 -20299.328113 -1135.764802
12519.092764 -20297.373446 -1135.764802
12518.669350 -20295.418780 -1135.764802
12518.245936 -20293.464114 -1135.764802
12517.822521 -20291.509447 -1135.764802
12517.399107 -20289.554781 -1135.764802
12516.975693 -20287.600115 -1135.764802
12516.552278 -20285.645449 -1135.764802
12516.128864 -20283.690782 -1135.764802
12515.705449 -20281.736116 -1135.764802
12515.282035 -20279.781450 -1135.764802
12514.858621 -20277.826783 -1135.764802
12514.435206 -20275.872117 -1135.764802
12514.011792 -20273.917451 -1135.764802
12513.588378 -20271.962785 -1135.764802
12513.164963 -20270.008118 -1135.764802
12512.741549 -20268.053452 -1135.764802
12512.318135 -20266.098786 -1135.764802
12511.894720 -20264.144119 -1135.764802
12511.471306 -20262.189453 -1135.764802
12511.047892 -20260.234787 -1135.764802
12510.624477 -20258.280121 -1135.764802
12510.201063 -20256.325454 -1135.764802
12509.777648 -20254.370788 -1135.764802
12509.354234 -20252.416122 -1135.764802
12508.930820 -20250.461455 -1135.764802
12508.507405 -20248.506789 -1135.764802
12508.083991 -20246.552123 -1135.764802
12507.660577 -20244.597457 -1135.764802
12507.237162 -20242.642790 -1135.764802
12506.813748 -20240.688124 -1135.764802
12506.390334 -20238.733458 -1135.764802
12505.966919 -20236.778791 -1135.764802
12505.543505 -20234.824125 -1135.764802
12505.120091 -20232.869459 -1135.764802
12504.696676 -20230.914793 -1135.764802
12504.273262 -20228.960126 -1135.764802
12503.849847 -20227.005460 -1135.764802
12503.426433 -20225.050794 -1135.764802
12503.003019 -20223.096127 -1135.764802
12502.579604 -20221.141461 -1135.764802
12502.156190 -20219.186795 -1135.764802
12501.732776 -20217.232129 -1135.764802
12501.309361 -20215.277462 -1135.764802
12500.885947 -20213.322796 -1135.764802
12500.462533 -20211.368130 -1135.764802
12500.039118 -20209.413463 -1135.764802
12499.615704 -20207.458797 -1135.764802
12499.192289 -20205.504131 -1135.764802
12498.768875 -20203.549465 -1135.764802
12498.345461 -20201.594798 -1135.764802
12497.922046 -20199.640132 -1135.764802
