13422.430511 -20440.407361 -187.764802
13420.555852 -20439.710474 -187.764802
13418.681193 -20439.013586 -187.764802
13416.806533 -20438.316699 -187.764802
13414.931874 -20437.619812 -187.764802
13413.057214 -20436.922924 -187.764802
13411.182555 -20436.226037 -187.764802
13409.307895 -20435.529149 -187.764802
13407.433236 -20434.832262 -187.764802
13405.558576 -20434.135375 -187.764802
13403.683917 -20433.438487 -187.764802
13401.809258 -20432.741600 -187.764802
13399.934598 -20432.044713 -187.764802
13398.059939 -20431.347825 -187.764802
13396.185279 -20430.650938 -187.764802
13394.310620 -20429.954051 -187.764802
13392.435960 -20429.257163 -187.764802
13390.561301 -20428.560276 -187.764802
13388.686642 -20427.863389 -187.764802
13385.666667 -20426.740741 -187.764802
13385.640532 -20426.729125 -189.764597
13385.614397 -20426.717510 -191.764393
13385.588262 -20426.705894 -193.764188
13385.562126 -20426.694278 -195.763984
13385.535991 -20426.682663 -197.763779
13385.509856 -20426.671047 -199.763575
13385.483721 -20426.659432 -201.763370
13385.457586 -20426.647816 -203.763166
13385.431451 -20426.636201 -205.762961
13385.405316 -20426.624585 -207.762757
13385.379181 -20426.612969 -209.762552
13385.353046 -20426.601354 -211.762348
13385.326911 -20426.589738 -213.762143
13385.300776 -20426.578123 -215.761939
13385.274641 -20426.566507 -217.761734
13385.248506 -20426.554892 -219.761530
13385.222371 -20426.543276 -221.761325
13385.196236 -20426.531660 -223.761121
13385.170101 -20426.520045 -225.760916
13385.143966 -20426.508429 -227.760712
13385.117831 -20426.496814 -229.760507
13385.091696 -20426.485198 -231.760303
13385.065561 -20426.473582 -233.760098
13385.039425 -20426.461967 -235.759894
13385.013290 -20426.450351 -237.759689
13384.987155 -20426.438736 -239.759485
13384.961020 -20426.427120 -241.759280
13384.934885 -20426.415505 -243.759076
13384.908750 -20426.403889 -245.758871
13384.882615 -20426.392273 -247.758667
13384.833333 -20426.370370 -251.529604
13383.796509 -20426.462361 -253.237390
13382.759685 -20426.554351 -254.945176
13381.722861 -20426.646342 -256.652962
13380.686036 -20426.738332 -258.360748
13379.649212 -20426.830323 -260.068534
13378.612388 -20426.922313 -261.776320
13377.575564 -20427.014304 -263.484106
13376.538739 -20427.106294 -265.191892
13375.501915 -20427.198285 -266.899679
13374.465091 -20427.290275 -268.607465
13373.428267 -20427.382266 -270.315251
13372.391442 -20427.474256 -272.023037
13371.354618 -20427.566247 -273.730823
13370.317794 -20427.658237 -275.438609
13369.280970 -20427.750228 -277.146395
13368.244146 -20427.842218 -278.854181
13367.207321 -20427.934208 -280.561967
13366.170497 -20428.026199 -282.269753
13365.133673 -20428.118189 -283.977539
13364.096849 -20428.210180 -285.685325
13363.060024 -20428.302170 -287.393111
13362.023200 -20428.394161 -289.100897
13360.986376 -20428.486151 -290.808683
13359.949552 -20428.578142 -292.516470
13358.912727 -20428.670132 -294.224256
13357.875903 -20428.762123 -295.932042
13356.839079 -20428.854113 -297.639828
13355.802255 -20428.946104 -299.347614
13354.765430 -20429.038094 -301.055400
13353.728606 -20429.130085 -302.763186
13352.691782 -20429.222075 -304.470972
13351.654958 -20429.314066 -306.178758
13350.618133 -20429.406056 -307.886544
13349.581309 -20429.498047 -309.594330
13348.544485 -20429.590037 -311.302116
13347.507661 -20429.682028 -313.009902
13346.470836 -20429.774018 -314.717688
13345.434012 -20429.866009 -316.425474
13344.397188 -20429.957999 -318.133261
13343.360364 -20430.049989 -319.841047
13342.323540 -20430.141980 -321.548833
13341.286715 -20430.233970 -323.256619
13340.249891 -20430.325961 -324.964405
13339.213067 -20430.417951 -326.672191
13338.176243 -20430.509942 -328.379977
13337.139418 -20430.601932 -330.087763
13336.102594 -20430.693923 -331.795549
13335.065770 -20430.785913 -333.503335
13334.028946 -20430.877904 -335.211121
13332.992121 -20430.969894 -336.918907
13331.955297 -20431.061885 -338.626693
13330.918473 -20431.153875 -340.334479
13329.881649 -20431.245866 -342.042265
13328.844824 -20431.337856 -343.750052
13327.808000 -20431.429847 -345.457838
13326.771176 -20431.521837 -347.165624
13325.734352 -20431.613828 -348.873410
13324.697527 -20431.705818 -350.581196
13323.660703 -20431.797809 -352.288982
13322.623879 -20431.889799 -353.996768
13321.587055 -20431.981789 -355.704554
13320.550230 -20432.073780 -357.412340
13319.513406 -20432.165770 -359.120126
13318.476582 -20432.257761 -360.827912
13317.439758 -20432.349751 -362.535698
13316.402934 -20432.441742 -364.243484
13315.366109 -20432.533732 -365.951270
13314.329285 -20432.625723 -367.659056
13313.292461 -20432.717713 -369.366843
13312.255637 -20432.809704 -371.074629
13311.218812 -20432.901694 -372.782415
13310.181988 -20432.993685 -374.490201
13309.145164 -20433.085675 -376.197987
13308.108340 -20433.177666 -377.905773
13307.071515 -20433.269656 -379.613559
13306.034691 -20433.361647 -381.321345
13304.997867 -20433.453637 -383.029131
13303.961043 -20433.545628 -384.736917
13302.924218 -20433.637618 -386.444703
13301.887394 -20433.729609 -388.152489
13300.850570 -20433.821599 -389.860275
13299.813746 -20433.913590 -391.568061
13298.776921 -20434.005580 -393.275847
13297.740097 -20434.097570 -394.983634
13296.703273 -20434.189561 -396.691420
13295.666449 -20434.281551 -398.399206
13294.629625 -20434.373542 -400.106992
13293.592800 -20434.465532 -401.814778
13292.555976 -20434.557523 -403.522564
13291.519152 -20434.649513 -405.230350
13290.482328 -20434.741504 -406.938136
13289.445503 -20434.833494 -408.645922
13288.408679 -20434.925485 -410.353708
13287.371855 -20435.017475 -412.061494
13286.335031 -20435.109466 -413.769280
13285.298206 -20435.201456 -415.477066
13284.261382 -20435.293447 -417.184852
13283.224558 -20435.385437 -418.892638
13282.187734 -20435.477428 -420.600424
13281.150909 -20435.569418 -422.308211
13280.114085 -20435.661409 -424.015997
13279.077261 -20435.753399 -425.723783
13278.040437 -20435.845390 -427.431569
13277.003612 -20435.937380 -429.139355
13275.966788 -20436.029370 -430.847141
13274.929964 -20436.121361 -432.554927
13273.893140 -20436.213351 -434.262713
13272.856315 -20436.305342 -435.970499
13271.819491 -20436.397332 -437.678285
13270.782667 -20436.489323 -439.386071
13269.745843 -20436.581313 -441.093857
13268.709019 -20436.673304 -442.801643
13267.672194 -20436.765294 -444.509429
13266.635370 -20436.857285 -446.217215
13265.598546 -20436.949275 -447.925002
13264.561722 -20437.041266 -449.632788
13263.524897 -20437.133256 -451.340574
13262.488073 -20437.225247 -453.048360
13261.451249 -20437.317237 -454.756146
13260.414425 -20437.409228 -456.463932
13259.377600 -20437.501218 -458.171718
13258.340776 -20437.593209 -459.879504
13257.303952 -20437.685199 -461.587290
13256.267128 -20437.777190 -463.295076
13255.230303 -20437.869180 -465.002862
13254.193479 -20437.961170 -466.710648
13253.156655 -20438.053161 -468.418434
13252.119831 -20438.145151 -470.126220
13251.083006 -20438.237142 -471.834006
13250.046182 -20438.329132 -473.541793
13249.009358 -20438.421123 -475.249579
13247.972534 -20438.513113 -476.957365
13246.935709 -20438.605104 -478.665151
13245.898885 -20438.697094 -480.372937
13244.862061 -20438.789085 -482.080723
13243.825237 -20438.881075 -483.788509
13242.788413 -20438.973066 -485.496295
13241.751588 -20439.065056 -487.204081
13240.714764 -20439.157047 -488.911867
13239.677940 -20439.249037 -490.619653
13238.641116 -20439.341028 -492.327439
13237.604291 -20439.433018 -494.035225
13236.567467 -20439.525009 -495.743011
13235.530643 -20439.616999 -497.450797
13234.493819 -20439.708990 -499.158584
13233.456994 -20439.800980 -500.866370
13232.420170 -20439.892971 -502.574156
13231.383346 -20439.984961 -504.281942
13230.346522 -20440.076951 -505.989728
13229.309697 -20440.168942 -507.697514
13228.272873 -20440.260932 -509.405300
13227.236049 -20440.352923 -511.113086
13226.199225 -20440.444913 -512.820872
13225.162400 -20440.536904 -514.528658
13224.125576 -20440.628894 -516.236444
13223.088752 -20440.720885 -517.944230
13222.051928 -20440.812875 -519.652016
13221.015104 -20440.904866 -521.359802
13219.978279 -20440.996856 -523.067588
13218.941455 -20441.088847 -524.775375
13217.904631 -20441.180837 -526.483161
13216.867807 -20441.272828 -528.190947
13215.830982 -20441.364818 -529.898733
13214.794158 -20441.456809 -531.606519
13213.757334 -20441.548799 -533.314305
13212.720510 -20441.640790 -535.022091
13211.683685 -20441.732780 -536.729877
13210.646861 -20441.824771 -538.437663
13209.610037 -20441.916761 -540.145449
13208.573213 -20442.008751 -541.853235
13207.536388 -20442.100742 -543.561021
13206.499564 -20442.192732 -545.268807
13205.462740 -20442.284723 -546.976593
13204.425916 -20442.376713 -548.684379
13203.389091 -20442.468704 -550.392166
13202.352267 -20442.560694 -552.099952
13201.315443 -20442.652685 -553.807738
13200.278619 -20442.744675 -555.515524
13199.241794 -20442.836666 -557.223310
13198.204970 -20442.928656 -558.931096
13197.168146 -20443.020647 -560.638882
13196.131322 -20443.112637 -562.346668
13195.094498 -20443.204628 -564.054454
13194.057673 -20443.296618 -565.762240
13193.020849 -20443.388609 -567.470026
13191.984025 -20443.480599 -569.177812
13190.947201 -20443.572590 -570.885598
13189.910376 -20443.664580 -572.593384
13188.873552 -20443.756571 -574.301170
13187.836728 -20443.848561 -576.008957
13186.799904 -20443.940552 -577.716743
13185.763079 -20444.032542 -579.424529
13184.726255 -20444.124532 -581.132315
13183.689431 -20444.216523 -582.840101
13182.652607 -20444.308513 -584.547887
13181.615782 -20444.400504 -586.255673
13180.578958 -20444.492494 -587.963459
13179.542134 -20444.584485 -589.671245
13178.505310 -20444.676475 -591.379031
13177.468485 -20444.768466 -593.086817
13176.431661 -20444.860456 -594.794603
13175.394837 -20444.952447 -596.502389
13174.358013 -20445.044437 -598.210175
13173.321188 -20445.136428 -599.917961
13172.284364 -20445.228418 -601.625748
13171.247540 -20445.320409 -603.333534
13170.210716 -20445.412399 -605.041320
13169.173892 -20445.504390 -606.749106
13168.137067 -20445.596380 -608.456892
13167.100243 -20445.688371 -610.164678
13166.063419 -20445.780361 -611.872464
13165.026595 -20445.872352 -613.580250
13163.989770 -20445.964342 -615.288036
13162.952946 -20446.056332 -616.995822
13161.916122 -20446.148323 -618.703608
13160.879298 -20446.240313 -620.411394
13159.842473 -20446.332304 -622.119180
13158.805649 -20446.424294 -623.826966
13157.768825 -20446.516285 -625.534752
13156.732001 -20446.608275 -627.242539
13155.695176 -20446.700266 -628.950325
13154.658352 -20446.792256 -630.658111
13153.621528 -20446.884247 -632.365897
13152.584704 -20446.976237 -634.073683
13151.547879 -20447.068228 -635.781469
13150.511055 -20447.160218 -637.489255
13149.474231 -20447.252209 -639.197041
13148.437407 -20447.344199 -640.904827
13147.400583 -20447.436190 -642.612613
13146.363758 -20447.528180 -644.320399
13145.326934 -20447.620171 -646.028185
13144.290110 -20447.712161 -647.735971
13143.253286 -20447.804152 -649.443757
13142.216461 -20447.896142 -651.151543
13141.179637 -20447.988133 -652.859330
13140.142813 -20448.080123 -654.567116
13139.105989 -20448.172113 -656.274902
13138.069164 -20448.264104 -657.982688
13137.032340 -20448.356094 -659.690474
13135.995516 -20448.448085 -661.398260
13134.958692 -20448.540075 -663.106046
13133.921867 -20448.632066 -664.813832
13132.885043 -20448.724056 -666.521618
13131.848219 -20448.816047 -668.229404
13130.811395 -20448.908037 -669.937190
13129.774570 -20449.000028 -671.644976
13128.737746 -20449.092018 -673.352762
13127.700922 -20449.184009 -675.060548
13126.664098 -20449.275999 -676.768334
13125.627273 -20449.367990 -678.476121
13124.590449 -20449.459980 -680.183907
13123.553625 -20449.551971 -681.891693
13122.516801 -20449.643961 -683.599479
13121.479977 -20449.735952 -685.307265
13120.443152 -20449.827942 -687.015051
13119.406328 -20449.919933 -688.722837
13118.369504 -20450.011923 -690.430623
13117.332680 -20450.103913 -692.138409
13116.295855 -20450.195904 -693.846195
13115.259031 -20450.287894 -695.553981
13114.222207 -20450.379885 -697.261767
13113.185383 -20450.471875 -698.969553
13112.148558 -20450.563866 -700.677339
13111.111734 -20450.655856 -702.385125
13110.074910 -20450.747847 -704.092912
13109.038086 -20450.839837 -705.800698
13108.001261 -20450.931828 -707.508484
13106.964437 -20451.023818 -709.216270
13105.927613 -20451.115809 -710.924056
13104.890789 -20451.207799 -712.631842
13103.853964 -20451.299790 -714.339628
13102.817140 -20451.391780 -716.047414
13101.780316 -20451.483771 -717.755200
13100.743492 -20451.575761 -719.462986
13099.706667 -20451.667752 -721.170772
13098.669843 -20451.759742 -722.878558
13097.633019 -20451.851733 -724.586344
13096.596195 -20451.943723 -726.294130
13095.559371 -20452.035714 -728.001916
13094.522546 -20452.127704 -729.709703
13093.485722 -20452.219694 -731.417489
13092.448898 -20452.311685 -733.125275
13091.412074 -20452.403675 -734.833061
13090.375249 -20452.495666 -736.540847
13089.338425 -20452.587656 -738.248633
13088.301601 -20452.679647 -739.956419
13087.264777 -20452.771637 -741.664205
13086.227952 -20452.863628 -743.371991
13085.191128 -20452.955618 -745.079777
13084.154304 -20453.047609 -746.787563
13083.117480 -20453.139599 -748.495349
13082.080655 -20453.231590 -750.203135
13081.043831 -20453.323580 -751.910921
13080.007007 -20453.415571 -753.618707
13078.970183 -20453.507561 -755.326494
13077.933358 -20453.599552 -757.034280
13076.896534 -20453.691542 -758.742066
13075.859710 -20453.783533 -760.449852
13074.822886 -20453.875523 -762.157638
13073.786062 -20453.967514 -763.865424
13072.749237 -20454.059504 -765.573210
13071.712413 -20454.151494 -767.280996
13070.675589 -20454.243485 -768.988782
13069.638765 -20454.335475 -770.696568
13068.601940 -20454.427466 -772.404354
13067.565116 -20454.519456 -774.112140
13066.528292 -20454.611447 -775.819926
13065.491468 -20454.703437 -777.527712
13064.454643 -20454.795428 -779.235498
13063.417819 -20454.887418 -780.943285
13062.380995 -20454.979409 -782.651071
13061.344171 -20455.071399 -784.358857
13060.307346 -20455.163390 -786.066643
13059.270522 -20455.255380 -787.774429
13058.233698 -20455.347371 -789.482215
13057.196874 -20455.439361 -791.190001
13056.160049 -20455.531352 -792.897787
13055.123225 -20455.623342 -794.605573
13054.086401 -20455.715333 -796.313359
13053.049577 -20455.807323 -798.021145
13052.012752 -20455.899314 -799.728931
13050.975928 -20455.991304 -801.436717
13049.939104 -20456.083295 -803.144503
13048.902280 -20456.175285 -804.852289
13047.865456 -20456.267275 -806.560076
13046.828631 -20456.359266 -808.267862
13045.791807 -20456.451256 -809.975648
13044.754983 -20456.543247 -811.683434
13043.718159 -20456.635237 -813.391220
13042.681334 -20456.727228 -815.099006
13041.644510 -20456.819218 -816.806792
13040.607686 -20456.911209 -818.514578
13039.570862 -20457.003199 -820.222364
13038.534037 -20457.095190 -821.930150
13037.497213 -20457.187180 -823.637936
13036.460389 -20457.279171 -825.345722
13035.423565 -20457.371161 -827.053508
13034.386740 -20457.463152 -828.761294
13033.349916 -20457.555142 -830.469080
13032.313092 -20457.647133 -832.176867
13031.276268 -20457.739123 -833.884653
13030.239443 -20457.831114 -835.592439
13029.202619 -20457.923104 -837.300225
13028.165795 -20458.015095 -839.008011
13027.128971 -20458.107085 -840.715797
13026.092146 -20458.199075 -842.423583
13025.055322 -20458.291066 -844.131369
13024.018498 -20458.383056 -845.839155
13022.981674 -20458.475047 -847.546941
13021.944850 -20458.567037 -849.254727
13020.908025 -20458.659028 -850.962513
13019.871201 -20458.751018 -852.670299
13018.834377 -20458.843009 -854.378085
13017.797553 -20458.934999 -856.085871
13016.760728 -20459.026990 -857.793658
13015.723904 -20459.118980 -859.501444
13014.687080 -20459.210971 -861.209230
13013.650256 -20459.302961 -862.917016
13012.613431 -20459.394952 -864.624802
13011.576607 -20459.486942 -866.332588
13010.539783 -20459.578933 -868.040374
13009.502959 -20459.670923 -869.748160
13008.466134 -20459.762914 -871.455946
13007.429310 -20459.854904 -873.163732
13006.392486 -20459.946895 -874.871518
13005.355662 -20460.038885 -876.579304
13004.318837 -20460.130876 -878.287090
13003.282013 -20460.222866 -879.994876
13002.245189 -20460.314856 -881.702662
13001.208365 -20460.406847 -883.410448
13000.171541 -20460.498837 -885.118235
12999.134716 -20460.590828 -886.826021
12998.097892 -20460.682818 -888.533807
12997.061068 -20460.774809 -890.241593
12996.024244 -20460.866799 -891.949379
12994.987419 -20460.958790 -893.657165
12993.950595 -20461.050780 -895.364951
12992.913771 -20461.142771 -897.072737
12991.876947 -20461.234761 -898.780523
12990.840122 -20461.326752 -900.488309
12989.803298 -20461.418742 -902.196095
12988.766474 -20461.510733 -903.903881
12987.729650 -20461.602723 -905.611667
12986.692825 -20461.694714 -907.319453
12985.656001 -20461.786704 -909.027239
12984.619177 -20461.878695 -910.735026
12983.582353 -20461.970685 -912.442812
12982.545528 -20462.062676 -914.150598
12981.508704 -20462.154666 -915.858384
12980.471880 -20462.246656 -917.566170
12979.435056 -20462.338647 -919.273956
12978.398231 -20462.430637 -920.981742
12977.361407 -20462.522628 -922.689528
12976.324583 -20462.614618 -924.397314
12975.287759 -20462.706609 -926.105100
12974.250935 -20462.798599 -927.812886
12973.214110 -20462.890590 -929.520672
12972.177286 -20462.982580 -931.228458
12971.140462 -20463.074571 -932.936244
12970.103638 -20463.166561 -934.644030
12969.066813 -20463.258552 -936.351817
12968.029989 -20463.350542 -938.059603
12966.993165 -20463.442533 -939.767389
12965.956341 -20463.534523 -941.475175
12964.919516 -20463.626514 -943.182961
12963.882692 -20463.718504 -944.890747
12962.845868 -20463.810495 -946.598533
12961.809044 -20463.902485 -948.306319
12960.772219 -20463.994476 -950.014105
12959.735395 -20464.086466 -951.721891
12958.698571 -20464.178457 -953.429677
12957.661747 -20464.270447 -955.137463
12956.624922 -20464.362437 -956.845249
12955.588098 -20464.454428 -958.553035
12954.551274 -20464.546418 -960.260821
12953.514450 -20464.638409 -961.968608
12952.477626 -20464.730399 -963.676394
12951.440801 -20464.822390 -965.384180
12950.403977 -20464.914380 -967.091966
12949.367153 -20465.006371 -968.799752
12948.330329 -20465.098361 -970.507538
12947.293504 -20465.190352 -972.215324
12946.256680 -20465.282342 -973.923110
12945.219856 -20465.374333 -975.630896
12944.183032 -20465.466323 -977.338682
12943.146207 -20465.558314 -979.046468
12942.109383 -20465.650304 -980.754254
12941.072559 -20465.742295 -982.462040
12940.035735 -20465.834285 -984.169826
12938.998910 -20465.926276 -985.877612
12937.962086 -20466.018266 -987.585399
12936.925262 -20466.110257 -989.293185
12935.888438 -20466.202247 -991.000971
12934.851613 -20466.294237 -992.708757
12933.814789 -20466.386228 -994.416543
12932.777965 -20466.478218 -996.124329
12931.741141 -20466.570209 -997.832115
12930.704316 -20466.662199 -999.539901
12929.667492 -20466.754190 -1001.247687
12928.630668 -20466.846180 -1002.955473
12927.593844 -20466.938171 -1004.663259
12926.557020 -20467.030161 -1006.371045
12925.520195 -20467.122152 -1008.078831
12924.483371 -20467.214142 -1009.786617
12923.446547 -20467.306133 -1011.494403
12922.409723 -20467.398123 -1013.202190
12921.372898 -20467.490114 -1014.909976
12920.336074 -20467.582104 -1016.617762
12919.299250 -20467.674095 -1018.325548
12918.262426 -20467.766085 -1020.033334
12917.225601 -20467.858076 -1021.741120
12916.188777 -20467.950066 -1023.448906
12915.151953 -20468.042057 -1025.156692
12914.115129 -20468.134047 -1026.864478
12913.078304 -20468.226037 -1028.572264
12912.041480 -20468.318028 -1030.280050
12911.004656 -20468.410018 -1031.987836
12909.967832 -20468.502009 -1033.695622
12908.931007 -20468.593999 -1035.403408
12907.894183 -20468.685990 -1037.111194
12906.857359 -20468.777980 -1038.818981
12905.820535 -20468.869971 -1040.526767
12904.783710 -20468.961961 -1042.234553
12903.746886 -20469.053952 -1043.942339
12902.710062 -20469.145942 -1045.650125
12901.673238 -20469.237933 -1047.357911
12900.636414 -20469.329923 -1049.065697
12899.599589 -20469.421914 -1050.773483
12898.562765 -20469.513904 -1052.481269
12897.525941 -20469.605895 -1054.189055
12896.489117 -20469.697885 -1055.896841
12895.452292 -20469.789876 -1057.604627
12894.415468 -20469.881866 -1059.312413
12893.378644 -20469.973857 -1061.020199
12892.341820 -20470.065847 -1062.727985
12891.304995 -20470.157838 -1064.435772
12890.268171 -20470.249828 -1066.143558
12889.231347 -20470.341818 -1067.851344
12888.194523 -20470.433809 -1069.559130
12887.157698 -20470.525799 -1071.266916
12886.120874 -20470.617790 -1072.974702
12885.084050 -20470.709780 -1074.682488
12884.047226 -20470.801771 -1076.390274
12883.010401 -20470.893761 -1078.098060
12881.973577 -20470.985752 -1079.805846
12880.936753 -20471.077742 -1081.513632
12879.899929 -20471.169733 -1083.221418
12878.863105 -20471.261723 -1084.929204
12877.826280 -20471.353714 -1086.636990
12876.789456 -20471.445704 -1088.344776
12875.752632 -20471.537695 -1090.052563
12874.715808 -20471.629685 -1091.760349
12873.678983 -20471.721676 -1093.468135
12872.642159 -20471.813666 -1095.175921
12871.605335 -20471.905657 -1096.883707
12870.568511 -20471.997647 -1098.591493
12869.531686 -20472.089638 -1100.299279
12868.494862 -20472.181628 -1102.007065
12867.458038 -20472.273618 -1103.714851
12866.421214 -20472.365609 -1105.422637
12865.384389 -20472.457599 -1107.130423
12864.347565 -20472.549590 -1108.838209
12863.310741 -20472.641580 -1110.545995
12862.273917 -20472.733571 -1112.253781
12861.237092 -20472.825561 -1113.961567
12860.200268 -20472.917552 -1115.669354
12859.163444 -20473.009542 -1117.377140
12858.126620 -20473.101533 -1119.084926
12857.089795 -20473.193523 -1120.792712
12856.052971 -20473.285514 -1122.500498
12855.016147 -20473.377504 -1124.208284
12853.979323 -20473.469495 -1125.916070
12852.942499 -20473.561485 -1127.623856
12851.905674 -20473.653476 -1129.331642
12850.868850 -20473.745466 -1131.039428
12849.832026 -20473.837457 -1132.747214
12848.000000 -20474.000000 -1135.764802
12847.555691 -20472.049977 -1135.764802
12847.111382 -20470.099954 -1135.764802
12846.667073 -20468.149931 -1135.764802
12846.222764 -20466.199908 -1135.764802
12845.778455 -20464.249885 -1135.764802
12845.334146 -20462.299862 -1135.764802
12844.889837 -20460.349839 -1135.764802
12844.445528 -20458.399816 -1135.764802
12844.001219 -20456.449793 -1135.764802
12843.556910 -20454.499771 -1135.764802
12843.112601 -20452.549748 -1135.764802
12842.668292 -20450.599725 -1135.764802
12842.223983 -20448.649702 -1135.764802
12841.779674 -20446.699679 -1135.764802
12841.335365 -20444.749656 -1135.764802
12840.891056 -20442.799633 -1135.764802
12840.446747 -20440.849610 -1135.764802
12840.002438 -20438.899587 -1135.764802
12839.558129 -20436.949564 -1135.764802
12839.113819 -20434.999541 -1135.764802
12838.669510 -20433.049518 -1135.764802
12838.225201 -20431.099495 -1135.764802
12837.780892 -20429.149472 -1135.764802
12837.336583 -20427.199449 -1135.764802
12836.892274 -20425.249426 -1135.764802
12836.447965 -20423.299403 -1135.764802
12836.003656 -20421.349380 -1135.764802
12835.559347 -20419.399358 -1135.764802
12835.115038 -20417.449335 -1135.764802
12834.670729 -20415.499312 -1135.764802
12834.226420 -20413.549289 -1135.764802
12833.782111 -20411.599266 -1135.764802
12833.337802 -20409.649243 -1135.764802
12832.893493 -20407.699220 -1135.764802
12832.449184 -20405.749197 -1135.764802
12832.004875 -20403.799174 -1135.764802
12831.560566 -20401.849151 -1135.764802
12831.116257 -20399.899128 -1135.764802
12830.671948 -20397.949105 -1135.764802
12830.227639 -20395.999082 -1135.764802
12829.783330 -20394.049059 -1135.764802
12829.339021 -20392.099036 -1135.764802
12828.894712 -20390.149013 -1135.764802
12828.450403 -20388.198990 -1135.764802
12828.006094 -20386.248967 -1135.764802
12827.561785 -20384.298944 -1135.764802
12827.117476 -20382.348922 -1135.764802
12826.673167 -20380.398899 -1135.764802
12826.228858 -20378.448876 -1135.764802
12825.784549 -20376.498853 -1135.764802
12825.340240 -20374.548830 -1135.764802
12824.895931 -20372.598807 -1135.764802
12824.451622 -20370.648784 -1135.764802
12824.007313 -20368.698761 -1135.764802
12823.563004 -20366.748738 -1135.764802
12823.118695 -20364.798715 -1135.764802
12822.674386 -20362.848692 -1135.764802
12822.230077 -20360.898669 -1135.764802
12821.785767 -20358.948646 -1135.764802
12821.341458 -20356.998623 -1135.764802
12820.897149 -20355.048600 -1135.764802
12820.452840 -20353.098577 -1135.764802
12820.008531 -20351.148554 -1135.764802
12819.564222 -20349.198531 -1135.764802
12819.119913 -20347.248509 -1135.764802
12818.675604 -20345.298486 -1135.764802
12818.231295 -20343.348463 -1135.764802
12817.786986 -20341.398440 -1135.764802
12817.342677 -20339.448417 -1135.764802
12816.898368 -20337.498394 -1135.764802
12816.454059 -20335.548371 -1135.764802
12816.009750 -20333.598348 -1135.764802
12815.565441 -20331.648325 -1135.764802
12815.121132 -20329.698302 -1135.764802
12814.676823 -20327.748279 -1135.764802
12814.232514 -20325.798256 -1135.764802
12813.788205 -20323.848233 -1135.764802
12813.343896 -20321.898210 -1135.764802
12812.899587 -20319.948187 -1135.764802
12812.455278 -20317.998164 -1135.764802
12812.010969 -20316.048141 -1135.764802
12811.566660 -20314.098118 -1135.764802
12811.122351 -20312.148095 -1135.764802
12810.678042 -20310.198073 -1135.764802
12810.233733 -20308.248050 -1135.764802
12809.789424 -20306.298027 -1135.764802
12809.345115 -20304.348004 -1135.764802
12808.900806 -20302.397981 -1135.764802
12808.456497 -20300.447958 -1135.764802
12808.012188 -20298.497935 -1135.764802
12807.567879 -20296.547912 -1135.764802
12807.123570 -20294.597889 -1135.764802
12806.679261 -20292.647866 -1135.764802
12806.234952 -20290.697843 -1135.764802
12805.790643 -20288.747820 -1135.764802
12805.346334 -20286.797797 -1135.764802
12804.902025 -20284.847774 -1135.764802
12804.457715 -20282.897751 -1135.764802
12804.013406 -20280.947728 -1135.764802
12803.569097 -20278.997705 -1135.764802
12803.124788 -20277.047682 -1135.764802
12802.680479 -20275.097660 -1135.764802
12802.236170 -20273.147637 -1135.764802
12801.791861 -20271.197614 -1135.764802
12801.347552 -20269.247591 -1135.764802
12800.903243 -20267.297568 -1135.764802
12800.458934 -20265.347545 -1135.764802
12800.014625 -20263.397522 -1135.764802
12799.570316 -20261.447499 -1135.764802
12799.126007 -20259.497476 -1135.764802
12798.681698 -20257.547453 -1135.764802
12798.237389 -20255.597430 -1135.764802
12797.793080 -20253.647407 -1135.764802
12797.348771 -20251.697384 -1135.764802
12796.904462 -20249.747361 -1135.764802
12796.460153 -20247.797338 -1135.764802
12796.015844 -20245.847315 -1135.764802
12795.571535 -20243.897292 -1135.764802
12795.127226 -20241.947269 -1135.764802
12794.682917 -20239.997246 -1135.764802
12794.238608 -20238.047224 -1135.764802
12793.794299 -20236.097201 -1135.764802
12793.349990 -20234.147178 -1135.764802
12792.905681 -20232.197155 -1135.764802
12792.461372 -20230.247132 -1135.764802
12792.017063 -20228.297109 -1135.764802
12791.572754 -20226.347086 -1135.764802
12791.128445 -20224.397063 -1135.764802
12790.684136 -20222.447040 -1135.764802
12790.239827 -20220.497017 -1135.764802
12789.795518 -20218.546994 -1135.764802
12789.351209 -20216.596971 -1135.764802
12788.906900 -20214.646948 -1135.764802
12788.462591 -20212.696925 -1135.764802
12788.018282 -20210.746902 -1135.764802
12787.573973 -20208.796879 -1135.764802
12787.129663 -20206.846856 -1135.764802
12786.685354 -20204.896833 -1135.764802
12786.241045 -20202.946811 -1135.764802
12785.796736 -20200.996788 -1135.764802
12785.352427 -20199.046765 -1135.764802
12784.908118 -20197.096742 -1135.764802
12784.463809 -20195.146719 -1135.764802
12784.019500 -20193.196696 -1135.764802
12783.575191 -20191.246673 -1135.764802
12783.130882 -20189.296650 -1135.764802
12782.686573 -20187.346627 -1135.764802
12782.242264 -20185.396604 -1135.764802
12781.797955 -20183.446581 -1135.764802
12781.353646 -20181.496558 -1135.764802
12780.909337 -20179.546535 -1135.764802
12780.465028 -20177.596512 -1135.764802
12780.020719 -20175.646489 -1135.764802
12779.576410 -20173.696466 -1135.764802
12779.132101 -20171.746443 -1135.764802
12778.687792 -20169.796420 -1135.764802
12778.243483 -20167.846397 -1135.764802
12777.799174 -20165.896375 -1135.764802
12777.354865 -20163.946352 -1135.764802
12776.910556 -20161.996329 -1135.764802
12776.466247 -20160.046306 -1135.764802
12776.021938 -20158.096283 -1135.764802
12775.577629 -20156.146260 -1135.764802
12775.133320 -20154.196237 -1135.764802
12774.689011 -20152.246214 -1135.764802
12774.244702 -20150.296191 -1135.764802
12773.800393 -20148.346168 -1135.764802
12773.356084 -20146.396145 -1135.764802
12772.911775 -20144.446122 -1135.764802
12772.467466 -20142.496099 -1135.764802
12772.023157 -20140.546076 -1135.764802
12771.578848 -20138.596053 -1135.764802
12771.134539 -20136.646030 -1135.764802
12770.690230 -20134.696007 -1135.764802
12770.245921 -20132.745984 -1135.764802
12769.801611 -20130.795962 -1135.764802
12769.357302 -20128.845939 -1135.764802
12768.912993 -20126.895916 -1135.764802
12768.468684 -20124.945893 -1135.764802
12768.024375 -20122.995870 -1135.764802
12767.580066 -20121.045847 -1135.764802
12767.135757 -20119.095824 -1135.764802
12766.691448 -20117.145801 -1135.764802
12766.247139 -20115.195778 -1135.764802
12765.802830 -20113.245755 -1135.764802
12765.358521 -20111.295732 -1135.764802
12764.914212 -20109.345709 -1135.764802
12764.469903 -20107.395686 -1135.764802
12764.025594 -20105.445663 -1135.764802
12763.581285 -20103.495640 -1135.764802
12763.136976 -20101.545617 -1135.764802
12762.692667 -20099.595594 -1135.764802
12762.248358 -20097.645571 -1135.764802
12761.804049 -20095.695548 -1135.764802
12761.359740 -20093.745526 -1135.764802
12760.915431 -20091.795503 -1135.764802
12760.471122 -20089.845480 -1135.764802
12760.026813 -20087.895457 -1135.764802
12759.582504 -20085.945434 -1135.764802
12759.138195 -20083.995411 -1135.764802
12758.693886 -20082.045388 -1135.764802
12758.249577 -20080.095365 -1135.764802
12757.805268 -20078.145342 -1135.764802
12757.360959 -20076.195319 -1135.764802
12756.916650 -20074.245296 -1135.764802
12756.472341 -20072.295273 -1135.764802
12756.028032 -20070.345250 -1135.764802
12755.583723 -20068.395227 -1135.764802
12755.139414 -20066.445204 -1135.764802
12754.695105 -20064.495181 -1135.764802
12754.250796 -20062.545158 -1135.764802
12753.806487 -20060.595135 -1135.764802
12753.362178 -20058.645113 -1135.764802
12752.917869 -20056.695090 -1135.764802
12752.473559 -20054.745067 -1135.764802
12752.029250 -20052.795044 -1135.764802
12751.584941 -20050.845021 -1135.764802
12751.140632 -20048.894998 -1135.764802
12750.696323 -20046.944975 -1135.764802
12750.252014 -20044.994952 -1135.764802
12749.807705 -20043.044929 -1135.764802
12749.363396 -20041.094906 -1135.764802
12748.919087 -20039.144883 -1135.764802
12748.474778 -20037.194860 -1135.764802
12748.030469 -20035.244837 -1135.764802
12747.586160 -20033.294814 -1135.764802
12747.141851 -20031.344791 -1135.764802
12746.697542 -20029.394768 -1135.764802
12746.253233 -20027.444745 -1135.764802
12745.808924 -20025.494722 -1135.764802
12745.364615 -20023.544699 -1135.764802
12744.920306 -20021.594677 -1135.764802
12744.475997 -20019.644654 -1135.764802
12744.031688 -20017.694631 -1135.764802
12743.587379 -20015.744608 -1135.764802
12743.143070 -20013.794585 -1135.764802
12742.698761 -20011.844562 -1135.764802
12742.254452 -20009.894539 -1135.764802
12741.810143 -20007.944516 -1135.764802
12741.365834 -20005.994493 -1135.764802
12740.921525 -20004.044470 -1135.764802
12740.477216 -20002.094447 -1135.764802
12740.032907 -20000.144424 -1135.764802
12739.588598 -19998.194401 -1135.764802
12739.144289 -19996.244378 -1135.764802
12738.699980 -19994.294355 -1135.764802
12738.255671 -19992.344332 -1135.764802
12737.811362 -19990.394309 -1135.764802
12737.367053 -19988.444286 -1135.764802
12736.922744 -19986.494264 -1135.764802
12736.478435 -19984.544241 -1135.764802
12736.034126 -19982.594218 -1135.764802
12735.589817 -19980.644195 -1135.764802
12735.145507 -19978.694172 -1135.764802
12734.701198 -19976.744149 -1135.764802
12734.256889 -19974.794126 -1135.764802
12733.812580 -19972.844103 -1135.764802
12733.368271 -19970.894080 -1135.764802
12732.923962 -19968.944057 -1135.764802
12732.479653 -19966.994034 -1135.764802
12732.035344 -19965.044011 -1135.764802
12731.591035 -19963.093988 -1135.764802
12731.146726 -19961.143965 -1135.764802
12730.702417 -19959.193942 -1135.764802
12730.258108 -19957.243919 -1135.764802
12729.813799 -19955.293896 -1135.764802
12729.369490 -19953.343873 -1135.764802
12728.925181 -19951.393850 -1135.764802
12728.480872 -19949.443828 -1135.764802
12728.036563 -19947.493805 -1135.764802
12727.592254 -19945.543782 -1135.764802
12727.147945 -19943.593759 -1135.764802
12726.703636 -19941.643736 -1135.764802
12726.259327 -19939.693713 -1135.764802
12725.815018 -19937.743690 -1135.764802
12725.370709 -19935.793667 -1135.764802
12724.926400 -19933.843644 -1135.764802
12724.482091 -19931.893621 -1135.764802
12724.037782 -19929.943598 -1135.764802
12723.593473 -19927.993575 -1135.764802
12723.149164 -19926.043552 -1135.764802
12722.704855 -19924.093529 -1135.764802
12722.260546 -19922.143506 -1135.764802
12721.816237 -19920.193483 -1135.764802
12721.371928 -19918.243460 -1135.764802
12720.927619 -19916.293437 -1135.764802
12720.483310 -19914.343415 -1135.764802
12720.039001 -19912.393392 -1135.764802
12719.594692 -19910.443369 -1135.764802
12719.150383 -19908.493346 -1135.764802
12718.706074 -19906.543323 -1135.764802
12718.261765 -19904.593300 -1135.764802
12717.817455 -19902.643277 -1135.764802
12717.373146 -19900.693254 -1135.764802
12716.928837 -19898.743231 -1135.764802
12716.484528 -19896.793208 -1135.764802
12716.040219 -19894.843185 -1135.764802
12715.595910 -19892.893162 -1135.764802
12715.151601 -19890.943139 -1135.764802
12714.707292 -19888.993116 -1135.764802
12714.262983 -19887.043093 -1135.764802
12713.818674 -19885.093070 -1135.764802
12713.374365 -19883.143047 -1135.764802
12712.930056 -19881.193024 -1135.764802
12712.485747 -19879.243001 -1135.764802
12712.041438 -19877.292979 -1135.764802
12711.597129 -19875.342956 -1135.764802
12711.152820 -19873.392933 -1135.764802
12710.708511 -19871.442910 -1135.764802
12710.264202 -19869.492887 -1135.764802
12709.819893 -19867.542864 -1135.764802
12709.375584 -19865.592841 -1135.764802
12708.931275 -19863.642818 -1135.764802
12708.486966 -19861.692795 -1135.764802
12708.042657 -19859.742772 -1135.764802
12707.598348 -19857.792749 -1135.764802
12707.154039 -19855.842726 -1135.764802
12706.709730 -19853.892703 -1135.764802
12706.265421 -19851.942680 -1135.764802
12705.821112 -19849.992657 -1135.764802
12705.376803 -19848.042634 -1135.764802
12704.932494 -19846.092611 -1135.764802
12704.488185 -19844.142588 -1135.764802
12704.043876 -19842.192566 -1135.764802
12703.599567 -19840.242543 -1135.764802
12703.155258 -19838.292520 -1135.764802
12702.710949 -19836.342497 -1135.764802
12702.266640 -19834.392474 -1135.764802
12701.822331 -19832.442451 -1135.764802
12701.378022 -19830.492428 -1135.764802
12700.933713 -19828.542405 -1135.764802
12700.489403 -19826.592382 -1135.764802
12700.045094 -19824.642359 -1135.764802
12699.600785 -19822.692336 -1135.764802
12699.156476 -19820.742313 -1135.764802
12698.712167 -19818.792290 -1135.764802
12698.267858 -19816.842267 -1135.764802
12697.823549 -19814.892244 -1135.764802
12697.379240 -19812.942221 -1135.764802
12696.934931 -19810.992198 -1135.764802
12696.490622 -19809.042175 -1135.764802
12696.046313 -19807.092152 -1135.764802
12695.602004 -19805.142130 -1135.764802
12695.157695 -19803.192107 -1135.764802
12694.713386 -19801.242084 -1135.764802
12694.269077 -19799.292061 -1135.764802
12693.824768 -19797.342038 -1135.764802
12693.380459 -19795.392015 -1135.764802
12692.936150 -19793.441992 -1135.764802
12692.491841 -19791.491969 -1135.764802
12692.047532 -19789.541946 -1135.764802
12691.603223 -19787.591923 -1135.764802
12691.158914 -19785.641900 -1135.764802
12690.714605 -19783.691877 -1135.764802
12690.270296 -19781.741854 -1135.764802
12689.825987 -19779.791831 -1135.764802
12689.381678 -19777.841808 -1135.764802
12688.937369 -19775.891785 -1135.764802
12688.493060 -19773.941762 -1135.764802
12688.048751 -19771.991739 -1135.764802
12687.604442 -19770.041717 -1135.764802
12687.160133 -19768.091694 -1135.764802
12686.715824 -19766.141671 -1135.764802
12686.271515 -19764.191648 -1135.764802
12685.827206 -19762.241625 -1135.764802
12685.382897 -19760.291602 -1135.764802
12684.938588 -19758.341579 -1135.764802
12684.494279 -19756.391556 -1135.764802
12684.049970 -19754.441533 -1135.764802
12683.605661 -19752.491510 -1135.764802
12683.161351 -19750.541487 -1135.764802
12682.717042 -19748.591464 -1135.764802
12682.272733 -19746.641441 -1135.764802
12681.828424 -19744.691418 -1135.764802
12681.384115 -19742.741395 -1135.764802
12680.939806 -19740.791372 -1135.764802
12680.495497 -19738.841349 -1135.764802
12680.051188 -19736.891326 -1135.764802
12679.606879 -19734.941303 -1135.764802
12679.162570 -19732.991281 -1135.764802
12678.718261 -19731.041258 -1135.764802
12678.273952 -19729.091235 -1135.764802
12677.829643 -19727.141212 -1135.764802
12677.385334 -19725.191189 -1135.764802
12676.941025 -19723.241166 -1135.764802
12676.496716 -19721.291143 -1135.764802
12676.052407 -19719.341120 -1135.764802
12675.608098 -19717.391097 -1135.764802
12675.163789 -19715.441074 -1135.764802
12674.719480 -19713.491051 -1135.764802
12674.275171 -19711.541028 -1135.764802
12673.830862 -19709.591005 -1135.764802
12673.386553 -19707.640982 -1135.764802
12672.942244 -19705.690959 -1135.764802
12672.497935 -19703.740936 -1135.764802
12672.053626 -19701.790913 -1135.764802
12671.609317 -19699.840890 -1135.764802
12671.165008 -19697.890868 -1135.764802
12670.720699 -19695.940845 -1135.764802
12670.276390 -19693.990822 -1135.764802
12669.832081 -19692.040799 -1135.764802
12669.387772 -19690.090776 -1135.764802
12668.943463 -19688.140753 -1135.764802
12668.499154 -19686.190730 -1135.764802
12668.054845 -19684.240707 -1135.764802
12667.610536 -19682.290684 -1135.764802
12667.166227 -19680.340661 -1135.764802
12666.721918 -19678.390638 -1135.764802
12666.277609 -19676.440615 -1135.764802
12665.833299 -19674.490592 -1135.764802
12665.388990 -19672.540569 -1135.764802
12664.944681 -19670.590546 -1135.764802
12664.500372 -19668.640523 -1135.764802
12664.056063 -19666.690500 -1135.764802
12663.611754 -19664.740477 -1135.764802
12663.167445 -19662.790454 -1135.764802
12662.723136 -19660.840432 -1135.764802
12662.278827 -19658.890409 -1135.764802
12661.834518 -19656.940386 -1135.764802
12661.390209 -19654.990363 -1135.764802
12660.945900 -19653.040340 -1135.764802
12660.501591 -19651.090317 -1135.764802
12660.057282 -19649.140294 -1135.764802
12659.612973 -19647.190271 -1135.764802
12659.168664 -19645.240248 -1135.764802
12658.724355 -19643.290225 -1135.764802
12658.280046 -19641.340202 -1135.764802
12657.835737 -19639.390179 -1135.764802
12657.391428 -19637.440156 -1135.764802
12656.947119 -19635.490133 -1135.764802
12656.502810 -19633.540110 -1135.764802
12656.058501 -19631.590087 -1135.764802
12655.614192 -19629.640064 -1135.764802
12655.169883 -19627.690041 -1135.764802
12654.725574 -19625.740019 -1135.764802
12654.281265 -19623.789996 -1135.764802
12653.836956 -19621.839973 -1135.764802
12653.392647 -19619.889950 -1135.764802
12652.948338 -19617.939927 -1135.764802
12652.504029 -19615.989904 -1135.764802
12652.059720 -19614.039881 -1135.764802
12651.615411 -19612.089858 -1135.764802
12651.171102 -19610.139835 -1135.764802
12650.726793 -19608.189812 -1135.764802
12650.282484 -19606.239789 -1135.764802
12649.838175 -19604.289766 -1135.764802
12649.393866 -19602.339743 -1135.764802
12648.949557 -19600.389720 -1135.764802
12648.505247 -19598.439697 -1135.764802
12648.060938 -19596.489674 -1135.764802
12647.616629 -19594.539651 -1135.764802
12647.172320 -19592.589628 -1135.764802
12646.728011 -19590.639605 -1135.764802
12646.283702 -19588.689583 -1135.764802
12645.839393 -19586.739560 -1135.764802
12645.395084 -19584.789537 -1135.764802
12644.950775 -19582.839514 -1135.764802
12644.506466 -19580.889491 -1135.764802
12644.062157 -19578.939468 -1135.764802
12643.617848 -19576.989445 -1135.764802
12643.173539 -19575.039422 -1135.764802
12642.729230 -19573.089399 -1135.764802
12642.284921 -19571.139376 -1135.764802
12641.840612 -19569.189353 -1135.764802
12641.396303 -19567.239330 -1135.764802
12640.951994 -19565.289307 -1135.764802
12640.507685 -19563.339284 -1135.764802
12640.063376 -19561.389261 -1135.764802
12639.619067 -19559.439238 -1135.764802
12639.174758 -19557.489215 -1135.764802
12638.730449 -19555.539192 -1135.764802
12638.286140 -19553.589170 -1135.764802
12637.841831 -19551.639147 -1135.764802
12637.397522 -19549.689124 -1135.764802
12636.953213 -19547.739101 -1135.764802
12636.508904 -19545.789078 -1135.764802
12636.064595 -19543.839055 -1135.764802
12635.620286 -19541.889032 -1135.764802
12635.175977 -19539.939009 -1135.764802
12634.731668 -19537.988986 -1135.764802
12634.287359 -19536.038963 -1135.764802
12633.843050 -19534.088940 -1135.764802
12633.398741 -19532.138917 -1135.764802
12632.954432 -19530.188894 -1135.764802
12632.510123 -19528.238871 -1135.764802
12632.000000 -19526.000000 -1135.764802
12630.013441 -19525.768515 -1135.764802
12628.026883 -19525.537031 -1135.764802
12626.040324 -19525.305546 -1135.764802
12624.053766 -19525.074062 -1135.764802
12622.067207 -19524.842577 -1135.764802
12620.080649 -19524.611093 -1135.764802
12618.094090 -19524.379608 -1135.764802
12616.107532 -19524.148123 -1135.764802
12614.120973 -19523.916639 -1135.764802
12612.134414 -19523.685154 -1135.764802
12610.147856 -19523.453670 -1135.764802
12608.161297 -19523.222185 -1135.764802
12606.174739 -19522.990700 -1135.764802
12604.188180 -19522.759216 -1135.764802
12602.201622 -19522.527731 -1135.764802
12600.215063 -19522.296247 -1135.764802
12598.228505 -19522.064762 -1135.764802
12596.241946 -19521.833278 -1135.764802
12594.255387 -19521.601793 -1135.764802
12592.268829 -19521.370308 -1135.764802
12590.282270 -19521.138824 -1135.764802
12588.295712 -19520.907339 -1135.764802
12586.309153 -19520.675855 -1135.764802
12584.322595 -19520.444370 -1135.764802
12582.336036 -19520.212886 -1135.764802
12580.349478 -19519.981401 -1135.764802
12578.362919 -19519.749916 -1135.764802
12576.376360 -19519.518432 -1135.764802
12574.389802 -19519.286947 -1135.764802
12572.403243 -19519.055463 -1135.764802
12570.416685 -19518.823978 -1135.764802
12568.430126 -19518.592494 -1135.764802
12566.443568 -19518.361009 -1135.764802
12564.457009 -19518.129524 -1135.764802
12562.470451 -19517.898040 -1135.764802
12560.483892 -19517.666555 -1135.764802
12558.497333 -19517.435071 -1135.764802
12556.510775 -19517.203586 -1135.764802
12554.524216 -19516.972101 -1135.764802
12552.537658 -19516.740617 -1135.764802
12550.551099 -19516.509132 -1135.764802
12548.564541 -19516.277648 -1135.764802
12546.577982 -19516.046163 -1135.764802
12544.591424 -19515.814679 -1135.764802
12542.604865 -19515.583194 -1135.764802
12540.618306 -19515.351709 -1135.764802
12538.631748 -19515.120225 -1135.764802
12536.645189 -19514.888740 -1135.764802
12534.658631 -19514.657256 -1135.764802
12532.672072 -19514.425771 -1135.764802
12530.685514 -19514.194287 -1135.764802
12528.698955 -19513.962802 -1135.764802
12526.712397 -19513.731317 -1135.764802
12524.725838 -19513.499833 -1135.764802
12522.739280 -19513.268348 -1135.764802
12520.752721 -19513.036864 -1135.764802
12518.766162 -19512.805379 -1135.764802
12516.779604 -19512.573895 -1135.764802
12514.793045 -19512.342410 -1135.764802
12512.806487 -19512.110925 -1135.764802
12510.819928 -19511.879441 -1135.764802
12508.833370 -19511.647956 -1135.764802
12506.846811 -19511.416472 -1135.764802
12504.860253 -19511.184987 -1135.764802
12502.873694 -19510.953502 -1135.764802
12500.887135 -19510.722018 -1135.764802
12498.900577 -19510.490533 -1135.764802
12496.914018 -19510.259049 -1135.764802
12494.927460 -19510.027564 -1135.764802
12492.940901 -19509.796080 -1135.764802
12490.954343 -19509.564595 -1135.764802
12488.967784 -19509.333110 -1135.764802
12486.981226 -19509.101626 -1135.764802
12484.994667 -19508.870141 -1135.764802
12483.008108 -19508.638657 -1135.764802
12481.021550 -19508.407172 -1135.764802
12479.034991 -19508.175688 -1135.764802
12477.048433 -19507.944203 -1135.764802
12475.061874 -19507.712718 -1135.764802
12473.075316 -19507.481234 -1135.764802
12471.088757 -19507.249749 -1135.764802
12469.102199 -19507.018265 -1135.764802
12467.115640 -19506.786780 -1135.764802
12465.129081 -19506.555296 -1135.764802
12463.142523 -19506.323811 -1135.764802
12461.155964 -19506.092326 -1135.764802
12459.169406 -19505.860842 -1135.764802
12457.182847 -19505.629357 -1135.764802
12455.196289 -19505.397873 -1135.764802
12453.209730 -19505.166388 -1135.764802
12451.223172 -19504.934903 -1135.764802
12449.236613 -19504.703419 -1135.764802
12447.250054 -19504.471934 -1135.764802
12445.263496 -19504.240450 -1135.764802
12443.276937 -19504.008965 -1135.764802
12441.290379 -19503.777481 -1135.764802
12439.303820 -19503.545996 -1135.764802
12437.317262 -19503.314511 -1135.764802
12435.330703 -19503.083027 -1135.764802
12433.344145 -19502.851542 -1135.764802
12431.357586 -19502.620058 -1135.764802
12429.371027 -19502.388573 -1135.764802
12427.384469 -19502.157089 -1135.764802
12425.397910 -19501.925604 -1135.764802
12423.411352 -19501.694119 -1135.764802
12421.424793 -19501.462635 -1135.764802
12419.438235 -19501.231150 -1135.764802
12417.451676 -19500.999666 -1135.764802
12415.465118 -19500.768181 -1135.764802
12413.478559 -19500.536696 -1135.764802
12411.492000 -19500.305212 -1135.764802
12409.505442 -19500.073727 -1135.764802
12407.518883 -19499.842243 -1135.764802
12405.532325 -19499.610758 -1135.764802
12403.545766 -19499.379274 -1135.764802
12401.559208 -19499.147789 -1135.764802
12399.572649 -19498.916304 -1135.764802
12397.586091 -19498.684820 -1135.764802
12395.599532 -19498.453335 -1135.764802
12393.612973 -19498.221851 -1135.764802
12391.626415 -19497.990366 -1135.764802
12389.639856 -19497.758882 -1135.764802
12387.653298 -19497.527397 -1135.764802
12385.666739 -19497.295912 -1135.764802
12383.680181 -19497.064428 -1135.764802
12381.693622 -19496.832943 -1135.764802
12379.707064 -19496.601459 -1135.764802
12377.720505 -19496.369974 -1135.764802
12375.733946 -19496.138490 -1135.764802
12373.747388 -19495.907005 -1135.764802
12371.760829 -19495.675520 -1135.764802
12369.774271 -19495.444036 -1135.764802
12367.787712 -19495.212551 -1135.764802
12365.801154 -19494.981067 -1135.764802
12363.814595 -19494.749582 -1135.764802
12361.828037 -19494.518097 -1135.764802
12359.841478 -19494.286613 -1135.764802
12357.854919 -19494.055128 -1135.764802
12355.868361 -19493.823644 -1135.764802
12353.881802 -19493.592159 -1135.764802
12351.895244 -19493.360675 -1135.764802
12349.908685 -19493.129190 -1135.764802
12347.922127 -19492.897705 -1135.764802
12345.935568 -19492.666221 -1135.764802
12343.949010 -19492.434736 -1135.764802
12341.962451 -19492.203252 -1135.764802
12339.975892 -19491.971767 -1135.764802
12337.989334 -19491.740283 -1135.764802
12336.002775 -19491.508798 -1135.764802
12334.016217 -19491.277313 -1135.764802
12332.029658 -19491.045829 -1135.764802
12330.043100 -19490.814344 -1135.764802
12328.056541 -19490.582860 -1135.764802
12326.069983 -19490.351375 -1135.764802
12324.083424 -19490.119891 -1135.764802
12322.096865 -19489.888406 -1135.764802
12320.110307 -19489.656921 -1135.764802
12318.123748 -19489.425437 -1135.764802
