10394.914050 -17012.127044 408.235198
10393.740919 -17013.746848 408.235198
10392.567788 -17015.366652 408.235198
10391.394658 -17016.986456 408.235198
10390.221527 -17018.606260 408.235198
10389.048396 -17020.226063 408.235198
10387.875266 -17021.845867 408.235198
10386.702135 -17023.465671 408.235198
10385.529005 -17025.085475 408.235198
10384.355874 -17026.705279 408.235198
10383.182743 -17028.325083 408.235198
10382.009613 -17029.944886 408.235198
10380.836482 -17031.564690 408.235198
10379.663351 -17033.184494 408.235198
10378.490221 -17034.804298 408.235198
10377.317090 -17036.424102 408.235198
10376.143959 -17038.043906 408.235198
10374.970829 -17039.663709 408.235198
10373.797698 -17041.283513 408.235198
10372.624567 -17042.903317 408.235198
10371.451437 -17044.523121 408.235198
10370.278306 -17046.142925 408.235198
10369.105175 -17047.762729 408.235198
10367.932045 -17049.382532 408.235198
10366.758914 -17051.002336 408.235198
10365.585783 -17052.622140 408.235198
10364.412653 -17054.241944 408.235198
10363.239522 -17055.861748 408.235198
10362.066391 -17057.481552 408.235198
10360.893261 -17059.101355 408.235198
10359.720130 -17060.721159 408.235198
10358.546999 -17062.340963 408.235198
10357.373869 -17063.960767 408.235198
10356.200738 -17065.580571 408.235198
10355.027607 -17067.200375 408.235198
10353.000000 -17070.000000 408.235198
10354.998464 -17070.078371 408.235198
10356.996928 -17070.156742 408.235198
10358.995392 -17070.235113 408.235198
10360.993856 -17070.313485 408.235198
10362.992320 -17070.391856 408.235198
10364.990783 -17070.470227 408.235198
10366.989247 -17070.548598 408.235198
10368.987711 -17070.626969 408.235198
10370.986175 -17070.705340 408.235198
10372.984639 -17070.783711 408.235198
10374.983103 -17070.862082 408.235198
10376.981567 -17070.940454 408.235198
10378.980031 -17071.018825 408.235198
10380.978495 -17071.097196 408.235198
10382.976959 -17071.175567 408.235198
10384.975422 -17071.253938 408.235198
10386.973886 -17071.332309 408.235198
10388.972350 -17071.410680 408.235198
10390.970814 -17071.489052 408.235198
10392.969278 -17071.567423 408.235198
10394.967742 -17071.645794 408.235198
10396.966206 -17071.724165 408.235198
10398.964670 -17071.802536 408.235198
10400.963134 -17071.880907 408.235198
10404.000000 -17072.000000 408.235198
10403.559756 -17073.950945 408.235198
10403.119512 -17075.901889 408.235198
10402.679268 -17077.852834 408.235198
10402.239024 -17079.803779 408.235198
10401.798780 -17081.754723 408.235198
10401.358535 -17083.705668 408.235198
10400.918291 -17085.656613 408.235198
10400.478047 -17087.607557 408.235198
10400.037803 -17089.558502 408.235198
10399.597559 -17091.509447 408.235198
10399.157315 -17093.460391 408.235198
10398.717071 -17095.411336 408.235198
10398.276827 -17097.362281 408.235198
10397.836583 -17099.313226 408.235198
10397.396339 -17101.264170 408.235198
10396.956095 -17103.215115 408.235198
10396.515851 -17105.166060 408.235198
10396.075606 -17107.117004 408.235198
10395.635362 -17109.067949 408.235198
10395.195118 -17111.018894 408.235198
10394.754874 -17112.969838 408.235198
10394.314630 -17114.920783 408.235198
10393.874386 -17116.871728 408.235198
10393.434142 -17118.822672 408.235198
10392.993898 -17120.773617 408.235198
10392.553654 -17122.724562 408.235198
10392.113410 -17124.675506 408.235198
10391.673166 -17126.626451 408.235198
10391.232922 -17128.577396 408.235198
10390.792677 -17130.528340 408.235198
10390.352433 -17132.479285 408.235198
10389.912189 -17134.430230 408.235198
10389.471945 -17136.381174 408.235198
10389.031701 -17138.332119 408.235198
10388.591457 -17140.283064 408.235198
10388.151213 -17142.234008 408.235198
10387.710969 -17144.184953 408.235198
10387.270725 -17146.135898 408.235198
10386.830481 -17148.086843 408.235198
10386.390237 -17150.037787 408.235198
10385.949992 -17151.988732 408.235198
10385.509748 -17153.939677 408.235198
10385.069504 -17155.890621 408.235198
10384.629260 -17157.841566 408.235198
10384.189016 -17159.792511 408.235198
10383.748772 -17161.743455 408.235198
10383.308528 -17163.694400 408.235198
10382.868284 -17165.645345 408.235198
10382.428040 -17167.596289 408.235198
10381.987796 -17169.547234 408.235198
10381.547552 -17171.498179 408.235198
10381.107308 -17173.449123 408.235198
10380.667063 -17175.400068 408.235198
10380.226819 -17177.351013 408.235198
10379.786575 -17179.301957 408.235198
10379.346331 -17181.252902 408.235198
10378.906087 -17183.203847 408.235198
10378.465843 -17185.154791 408.235198
10378.025599 -17187.105736 408.235198
10377.585355 -17189.056681 408.235198
10377.145111 -17191.007625 408.235198
10376.704867 -17192.958570 408.235198
10376.264623 -17194.909515 408.235198
10375.824379 -17196.860460 408.235198
10375.384134 -17198.811404 408.235198
10374.943890 -17200.762349 408.235198
10374.503646 -17202.713294 408.235198
10374.063402 -17204.664238 408.235198
10373.623158 -17206.615183 408.235198
10373.182914 -17208.566128 408.235198
10372.742670 -17210.517072 408.235198
10372.302426 -17212.468017 408.235198
10371.862182 -17214.418962 408.235198
10371.421938 -17216.369906 408.235198
10370.981694 -17218.320851 408.235198
10370.541450 -17220.271796 408.235198
10370.101205 -17222.222740 408.235198
10369.660961 -17224.173685 408.235198
10369.220717 -17226.124630 408.235198
10368.780473 -17228.075574 408.235198
10368.340229 -17230.026519 408.235198
10367.899985 -17231.977464 408.235198
10367.459741 -17233.928408 408.235198
10367.019497 -17235.879353 408.235198
10366.579253 -17237.830298 408.235198
10366.139009 -17239.781242 408.235198
10365.698765 -17241.732187 408.235198
10365.258520 -17243.683132 408.235198
10364.818276 -17245.634077 408.235198
10364.378032 -17247.585021 408.235198
10363.937788 -17249.535966 408.235198
10363.497544 -17251.486911 408.235198
10363.057300 -17253.437855 408.235198
10362.617056 -17255.388800 408.235198
10362.176812 -17257.339745 408.235198
10361.736568 -17259.290689 408.235198
10361.296324 -17261.241634 408.235198
10360.856080 -17263.192579 408.235198
10360.415836 -17265.143523 408.235198
10359.975591 -17267.094468 408.235198
10359.535347 -17269.045413 408.235198
10359.095103 -17270.996357 408.235198
10358.654859 -17272.947302 408.235198
10358.214615 -17274.898247 408.235198
10357.774371 -17276.849191 408.235198
10357.334127 -17278.800136 408.235198
10356.893883 -17280.751081 408.235198
10356.453639 -17282.702025 408.235198
10356.013395 -17284.652970 408.235198
10355.573151 -17286.603915 408.235198
10355.132907 -17288.554860 408.235198
10354.692662 -17290.505804 408.235198
10354.252418 -17292.456749 408.235198
10353.812174 -17294.407694 408.235198
10353.371930 -17296.358638 408.235198
10352.931686 -17298.309583 408.235198
10352.491442 -17300.260528 408.235198
10352.051198 -17302.211472 408.235198
10351.610954 -17304.162417 408.235198
10351.170710 -17306.113362 408.235198
10350.730466 -17308.064306 408.235198
10350.290222 -17310.015251 408.235198
10349.849977 -17311.966196 408.235198
10349.409733 -17313.917140 408.235198
10348.969489 -17315.868085 408.235198
10348.529245 -17317.819030 408.235198
10348.089001 -17319.769974 408.235198
10347.648757 -17321.720919 408.235198
10347.208513 -17323.671864 408.235198
10346.768269 -17325.622808 408.235198
10346.328025 -17327.573753 408.235198
10345.887781 -17329.524698 408.235198
10345.447537 -17331.475642 408.235198
10345.007293 -17333.426587 408.235198
10344.567048 -17335.377532 408.235198
10344.126804 -17337.328477 408.235198
10343.686560 -17339.279421 408.235198
10343.246316 -17341.230366 408.235198
10342.806072 -17343.181311 408.235198
10342.365828 -17345.132255 408.235198
10341.925584 -17347.083200 408.235198
10341.485340 -17349.034145 408.235198
10341.045096 -17350.985089 408.235198
10340.604852 -17352.936034 408.235198
10340.164608 -17354.886979 408.235198
10339.724364 -17356.837923 408.235198
10339.284119 -17358.788868 408.235198
10338.843875 -17360.739813 408.235198
10338.403631 -17362.690757 408.235198
10337.963387 -17364.641702 408.235198
10337.523143 -17366.592647 408.235198
10337.082899 -17368.543591 408.235198
10336.642655 -17370.494536 408.235198
10336.202411 -17372.445481 408.235198
10335.762167 -17374.396425 408.235198
10335.321923 -17376.347370 408.235198
10334.881679 -17378.298315 408.235198
10334.441434 -17380.249259 408.235198
10334.001190 -17382.200204 408.235198
10333.560946 -17384.151149 408.235198
10333.120702 -17386.102094 408.235198
10332.680458 -17388.053038 408.235198
10332.240214 -17390.003983 408.235198
10331.799970 -17391.954928 408.235198
10331.359726 -17393.905872 408.235198
10330.919482 -17395.856817 408.235198
10330.479238 -17397.807762 408.235198
10330.038994 -17399.758706 408.235198
10329.598750 -17401.709651 408.235198
10329.158505 -17403.660596 408.235198
10328.718261 -17405.611540 408.235198
10328.278017 -17407.562485 408.235198
10327.837773 -17409.513430 408.235198
10327.397529 -17411.464374 408.235198
10326.957285 -17413.415319 408.235198
10326.517041 -17415.366264 408.235198
10326.076797 -17417.317208 408.235198
10325.636553 -17419.268153 408.235198
10325.196309 -17421.219098 408.235198
10324.756065 -17423.170042 408.235198
10324.315821 -17425.120987 408.235198
10323.875576 -17427.071932 408.235198
10323.435332 -17429.022876 408.235198
10322.995088 -17430.973821 408.235198
10322.554844 -17432.924766 408.235198
10322.114600 -17434.875711 408.235198
10321.674356 -17436.826655 408.235198
10321.234112 -17438.777600 408.235198
10320.793868 -17440.728545 408.235198
10320.353624 -17442.679489 408.235198
10319.913380 -17444.630434 408.235198
10319.473136 -17446.581379 408.235198
10319.032892 -17448.532323 408.235198
10318.592647 -17450.483268 408.235198
10318.152403 -17452.434213 408.235198
10317.712159 -17454.385157 408.235198
10317.271915 -17456.336102 408.235198
10316.831671 -17458.287047 408.235198
10316.391427 -17460.237991 408.235198
10315.951183 -17462.188936 408.235198
10315.510939 -17464.139881 408.235198
10315.070695 -17466.090825 408.235198
10314.630451 -17468.041770 408.235198
10314.190207 -17469.992715 408.235198
10313.749962 -17471.943659 408.235198
10313.309718 -17473.894604 408.235198
10312.869474 -17475.845549 408.235198
10312.429230 -17477.796493 408.235198
10311.988986 -17479.747438 408.235198
10311.548742 -17481.698383 408.235198
10311.108498 -17483.649328 408.235198
10310.668254 -17485.600272 408.235198
10310.228010 -17487.551217 408.235198
10309.787766 -17489.502162 408.235198
10309.347522 -17491.453106 408.235198
10308.907278 -17493.404051 408.235198
10308.467033 -17495.354996 408.235198
10308.026789 -17497.305940 408.235198
10307.586545 -17499.256885 408.235198
10307.146301 -17501.207830 408.235198
10306.706057 -17503.158774 408.235198
10306.265813 -17505.109719 408.235198
10305.825569 -17507.060664 408.235198
10305.385325 -17509.011608 408.235198
10304.945081 -17510.962553 408.235198
10304.504837 -17512.913498 408.235198
10304.064593 -17514.864442 408.235198
10303.624349 -17516.815387 408.235198
10303.184104 -17518.766332 408.235198
10302.743860 -17520.717276 408.235198
10302.303616 -17522.668221 408.235198
10301.863372 -17524.619166 408.235198
10301.423128 -17526.570110 408.235198
10300.982884 -17528.521055 408.235198
10300.542640 -17530.472000 408.235198
10300.102396 -17532.422945 408.235198
10299.662152 -17534.373889 408.235198
10299.221908 -17536.324834 408.235198
10298.781664 -17538.275779 408.235198
10298.341419 -17540.226723 408.235198
10297.901175 -17542.177668 408.235198
10297.460931 -17544.128613 408.235198
10297.020687 -17546.079557 408.235198
10296.580443 -17548.030502 408.235198
10296.140199 -17549.981447 408.235198
10295.699955 -17551.932391 408.235198
10295.259711 -17553.883336 408.235198
10294.819467 -17555.834281 408.235198
10294.379223 -17557.785225 408.235198
10293.938979 -17559.736170 408.235198
10293.498735 -17561.687115 408.235198
10293.058490 -17563.638059 408.235198
10292.618246 -17565.589004 408.235198
10292.178002 -17567.539949 408.235198
10291.737758 -17569.490893 408.235198
10291.297514 -17571.441838 408.235198
10290.857270 -17573.392783 408.235198
10290.417026 -17575.343727 408.235198
10289.976782 -17577.294672 408.235198
10289.536538 -17579.245617 408.235198
10289.096294 -17581.196562 408.235198
10288.656050 -17583.147506 408.235198
10288.215806 -17585.098451 408.235198
10287.775561 -17587.049396 408.235198
10287.335317 -17589.000340 408.235198
10286.895073 -17590.951285 408.235198
10286.454829 -17592.902230 408.235198
10286.014585 -17594.853174 408.235198
10285.574341 -17596.804119 408.235198
10285.134097 -17598.755064 408.235198
10284.693853 -17600.706008 408.235198
10284.253609 -17602.656953 408.235198
10283.813365 -17604.607898 408.235198
10283.373121 -17606.558842 408.235198
10282.932876 -17608.509787 408.235198
10282.492632 -17610.460732 408.235198
10282.052388 -17612.411676 408.235198
10281.612144 -17614.362621 408.235198
10281.171900 -17616.313566 408.235198
10280.731656 -17618.264510 408.235198
10280.291412 -17620.215455 408.235198
10279.851168 -17622.166400 408.235198
10279.410924 -17624.117344 408.235198
10278.970680 -17626.068289 408.235198
10278.530436 -17628.019234 408.235198
10278.090192 -17629.970179 408.235198
10277.649947 -17631.921123 408.235198
10277.209703 -17633.872068 408.235198
10276.769459 -17635.823013 408.235198
10276.329215 -17637.773957 408.235198
10275.888971 -17639.724902 408.235198
10275.448727 -17641.675847 408.235198
10275.008483 -17643.626791 408.235198
10274.568239 -17645.577736 408.235198
10274.127995 -17647.528681 408.235198
10273.687751 -17649.479625 408.235198
10273.247507 -17651.430570 408.235198
10272.807263 -17653.381515 408.235198
10272.367018 -17655.332459 408.235198
10271.926774 -17657.283404 408.235198
10271.486530 -17659.234349 408.235198
10271.046286 -17661.185293 408.235198
10270.606042 -17663.136238 408.235198
10270.165798 -17665.087183 408.235198
10269.725554 -17667.038127 408.235198
10269.285310 -17668.989072 408.235198
10268.845066 -17670.940017 408.235198
10268.404822 -17672.890962 408.235198
10267.964578 -17674.841906 408.235198
10267.524333 -17676.792851 408.235198
10267.084089 -17678.743796 408.235198
10266.643845 -17680.694740 408.235198
10266.203601 -17682.645685 408.235198
10265.763357 -17684.596630 408.235198
10265.323113 -17686.547574 408.235198
10264.882869 -17688.498519 408.235198
10264.442625 -17690.449464 408.235198
10264.002381 -17692.400408 408.235198
10263.562137 -17694.351353 408.235198
10263.121893 -17696.302298 408.235198
10262.681649 -17698.253242 408.235198
10262.241404 -17700.204187 408.235198
10261.801160 -17702.155132 408.235198
10261.360916 -17704.106076 408.235198
10260.920672 -17706.057021 408.235198
10260.480428 -17708.007966 408.235198
10260.040184 -17709.958910 408.235198
10259.599940 -17711.909855 408.235198
10259.159696 -17713.860800 408.235198
10258.719452 -17715.811744 408.235198
10258.279208 -17717.762689 408.235198
10257.838964 -17719.713634 408.235198
10257.398720 -17721.664579 408.235198
10256.958475 -17723.615523 408.235198
10256.518231 -17725.566468 408.235198
10256.077987 -17727.517413 408.235198
10255.637743 -17729.468357 408.235198
10255.197499 -17731.419302 408.235198
10254.757255 -17733.370247 408.235198
10254.317011 -17735.321191 408.235198
10253.876767 -17737.272136 408.235198
10253.436523 -17739.223081 408.235198
10252.996279 -17741.174025 408.235198
10252.556035 -17743.124970 408.235198
10252.115791 -17745.075915 408.235198
10251.675546 -17747.026859 408.235198
10251.235302 -17748.977804 408.235198
10250.795058 -17750.928749 408.235198
10250.354814 -17752.879693 408.235198
10249.914570 -17754.830638 408.235198
10249.474326 -17756.781583 408.235198
10249.034082 -17758.732527 408.235198
10248.593838 -17760.683472 408.235198
10248.153594 -17762.634417 408.235198
10247.713350 -17764.585361 408.235198
10247.273106 -17766.536306 408.235198
10246.832861 -17768.487251 408.235198
10246.392617 -17770.438196 408.235198
10245.952373 -17772.389140 408.235198
10245.512129 -17774.340085 408.235198
10245.071885 -17776.291030 408.235198
10244.631641 -17778.241974 408.235198
10244.191397 -17780.192919 408.235198
10243.751153 -17782.143864 408.235198
10243.310909 -17784.094808 408.235198
10242.870665 -17786.045753 408.235198
10242.430421 -17787.996698 408.235198
10241.990177 -17789.947642 408.235198
10241.549932 -17791.898587 408.235198
10241.109688 -17793.849532 408.235198
10240.669444 -17795.800476 408.235198
10240.229200 -17797.751421 408.235198
10239.788956 -17799.702366 408.235198
10239.348712 -17801.653310 408.235198
10238.908468 -17803.604255 408.235198
10238.468224 -17805.555200 408.235198
10238.027980 -17807.506144 408.235198
10237.587736 -17809.457089 408.235198
10237.147492 -17811.408034 408.235198
10236.707248 -17813.358978 408.235198
10236.267003 -17815.309923 408.235198
10235.826759 -17817.260868 408.235198
10235.386515 -17819.211813 408.235198
10234.946271 -17821.162757 408.235198
10234.506027 -17823.113702 408.235198
10234.065783 -17825.064647 408.235198
10233.625539 -17827.015591 408.235198
10233.185295 -17828.966536 408.235198
10232.745051 -17830.917481 408.235198
10232.304807 -17832.868425 408.235198
10231.864563 -17834.819370 408.235198
10231.424318 -17836.770315 408.235198
10230.984074 -17838.721259 408.235198
10230.543830 -17840.672204 408.235198
10230.103586 -17842.623149 408.235198
10229.663342 -17844.574093 408.235198
10229.223098 -17846.525038 408.235198
10228.782854 -17848.475983 408.235198
10228.342610 -17850.426927 408.235198
10227.902366 -17852.377872 408.235198
10227.462122 -17854.328817 408.235198
10227.021878 -17856.279761 408.235198
10226.581634 -17858.230706 408.235198
10226.141389 -17860.181651 408.235198
10225.701145 -17862.132595 408.235198
10225.260901 -17864.083540 408.235198
10224.820657 -17866.034485 408.235198
10224.380413 -17867.985430 408.235198
10223.940169 -17869.936374 408.235198
10223.499925 -17871.887319 408.235198
10223.059681 -17873.838264 408.235198
10222.619437 -17875.789208 408.235198
10222.179193 -17877.740153 408.235198
10221.738949 -17879.691098 408.235198
10221.298705 -17881.642042 408.235198
10220.858460 -17883.592987 408.235198
10220.418216 -17885.543932 408.235198
10219.977972 -17887.494876 408.235198
10219.537728 -17889.445821 408.235198
10219.097484 -17891.396766 408.235198
10218.657240 -17893.347710 408.235198
10218.216996 -17895.298655 408.235198
10217.776752 -17897.249600 408.235198
10217.336508 -17899.200544 408.235198
10216.896264 -17901.151489 408.235198
10216.456020 -17903.102434 408.235198
10216.015775 -17905.053378 408.235198
10215.575531 -17907.004323 408.235198
10215.135287 -17908.955268 408.235198
10214.695043 -17910.906212 408.235198
10214.254799 -17912.857157 408.235198
10213.814555 -17914.808102 408.235198
10213.374311 -17916.759047 408.235198
10212.934067 -17918.709991 408.235198
10212.493823 -17920.660936 408.235198
10212.053579 -17922.611881 408.235198
10211.613335 -17924.562825 408.235198
10211.173091 -17926.513770 408.235198
10210.732846 -17928.464715 408.235198
10210.292602 -17930.415659 408.235198
10209.852358 -17932.366604 408.235198
10209.412114 -17934.317549 408.235198
10208.971870 -17936.268493 408.235198
10208.531626 -17938.219438 408.235198
10208.091382 -17940.170383 408.235198
10207.651138 -17942.121327 408.235198
10207.210894 -17944.072272 408.235198
10206.770650 -17946.023217 408.235198
10206.330406 -17947.974161 408.235198
10205.890162 -17949.925106 408.235198
10205.449917 -17951.876051 408.235198
10205.009673 -17953.826995 408.235198
10204.569429 -17955.777940 408.235198
10204.129185 -17957.728885 408.235198
10203.688941 -17959.679829 408.235198
10203.248697 -17961.630774 408.235198
10202.808453 -17963.581719 408.235198
10202.368209 -17965.532664 408.235198
10201.927965 -17967.483608 408.235198
10201.487721 -17969.434553 408.235198
10201.047477 -17971.385498 408.235198
10200.607233 -17973.336442 408.235198
10200.166988 -17975.287387 408.235198
10199.726744 -17977.238332 408.235198
10199.286500 -17979.189276 408.235198
10198.846256 -17981.140221 408.235198
10198.406012 -17983.091166 408.235198
10197.965768 -17985.042110 408.235198
10197.525524 -17986.993055 408.235198
10197.085280 -17988.944000 408.235198
10196.645036 -17990.894944 408.235198
10196.204792 -17992.845889 408.235198
10195.764548 -17994.796834 408.235198
10195.324303 -17996.747778 408.235198
10194.884059 -17998.698723 408.235198
10194.443815 -18000.649668 408.235198
10194.003571 -18002.600612 408.235198
10193.563327 -18004.551557 408.235198
10193.123083 -18006.502502 408.235198
10192.682839 -18008.453446 408.235198
10192.242595 -18010.404391 408.235198
10191.802351 -18012.355336 408.235198
10191.362107 -18014.306281 408.235198
10190.921863 -18016.257225 408.235198
10190.481619 -18018.208170 408.235198
10190.041374 -18020.159115 408.235198
10189.601130 -18022.110059 408.235198
10189.160886 -18024.061004 408.235198
10188.720642 -18026.011949 408.235198
10188.280398 -18027.962893 408.235198
10187.840154 -18029.913838 408.235198
10187.399910 -18031.864783 408.235198
10186.959666 -18033.815727 408.235198
10186.519422 -18035.766672 408.235198
10186.079178 -18037.717617 408.235198
10185.638934 -18039.668561 408.235198
10185.198690 -18041.619506 408.235198
10184.758445 -18043.570451 408.235198
10184.318201 -18045.521395 408.235198
10183.877957 -18047.472340 408.235198
10183.437713 -18049.423285 408.235198
10182.997469 -18051.374229 408.235198
10182.557225 -18053.325174 408.235198
10182.116981 -18055.276119 408.235198
10181.676737 -18057.227064 408.235198
10181.236493 -18059.178008 408.235198
10180.796249 -18061.128953 408.235198
10180.356005 -18063.079898 408.235198
10179.915760 -18065.030842 408.235198
10179.475516 -18066.981787 408.235198
10179.035272 -18068.932732 408.235198
10178.595028 -18070.883676 408.235198
10178.154784 -18072.834621 408.235198
10177.714540 -18074.785566 408.235198
10177.274296 -18076.736510 408.235198
10176.834052 -18078.687455 408.235198
10176.393808 -18080.638400 408.235198
10175.953564 -18082.589344 408.235198
10175.513320 -18084.540289 408.235198
10175.073076 -18086.491234 408.235198
10174.632831 -18088.442178 408.235198
10174.192587 -18090.393123 408.235198
10173.752343 -18092.344068 408.235198
10173.312099 -18094.295012 408.235198
10172.871855 -18096.245957 408.235198
10172.431611 -18098.196902 408.235198
10171.991367 -18100.147846 408.235198
10171.551123 -18102.098791 408.235198
10171.110879 -18104.049736 408.235198
10170.670635 -18106.000681 408.235198
10170.230391 -18107.951625 408.235198
10169.790147 -18109.902570 408.235198
10169.349902 -18111.853515 408.235198
10168.909658 -18113.804459 408.235198
10168.469414 -18115.755404 408.235198
10168.029170 -18117.706349 408.235198
10167.588926 -18119.657293 408.235198
10167.148682 -18121.608238 408.235198
10166.708438 -18123.559183 408.235198
10166.268194 -18125.510127 408.235198
10165.827950 -18127.461072 408.235198
10165.387706 -18129.412017 408.235198
10164.947462 -18131.362961 408.235198
10164.507217 -18133.313906 408.235198
10164.066973 -18135.264851 408.235198
10163.626729 -18137.215795 408.235198
10163.186485 -18139.166740 408.235198
10162.746241 -18141.117685 408.235198
10162.305997 -18143.068629 408.235198
10161.865753 -18145.019574 408.235198
10161.425509 -18146.970519 408.235198
10160.985265 -18148.921463 408.235198
10160.545021 -18150.872408 408.235198
10160.104777 -18152.823353 408.235198
10159.664533 -18154.774298 408.235198
10159.224288 -18156.725242 408.235198
10158.784044 -18158.676187 408.235198
10158.343800 -18160.627132 408.235198
10157.903556 -18162.578076 408.235198
10157.463312 -18164.529021 408.235198
10157.023068 -18166.479966 408.235198
10156.582824 -18168.430910 408.235198
10156.142580 -18170.381855 408.235198
10155.702336 -18172.332800 408.235198
10155.262092 -18174.283744 408.235198
10154.821848 -18176.234689 408.235198
10154.381604 -18178.185634 408.235198
10153.941359 -18180.136578 408.235198
10153.501115 -18182.087523 408.235198
10153.060871 -18184.038468 408.235198
10152.620627 -18185.989412 408.235198
10152.180383 -18187.940357 408.235198
10151.740139 -18189.891302 408.235198
10151.299895 -18191.842246 408.235198
10150.859651 -18193.793191 408.235198
10150.419407 -18195.744136 408.235198
10149.979163 -18197.695080 408.235198
10149.538919 -18199.646025 408.235198
10149.098675 -18201.596970 408.235198
10148.658430 -18203.547915 408.235198
10148.218186 -18205.498859 408.235198
10147.777942 -18207.449804 408.235198
10147.337698 -18209.400749 408.235198
10146.897454 -18211.351693 408.235198
10146.457210 -18213.302638 408.235198
10146.016966 -18215.253583 408.235198
10145.576722 -18217.204527 408.235198
10145.136478 -18219.155472 408.235198
10144.696234 -18221.106417 408.235198
10144.255990 -18223.057361 408.235198
10143.815745 -18225.008306 408.235198
10143.375501 -18226.959251 408.235198
10142.935257 -18228.910195 408.235198
10142.495013 -18230.861140 408.235198
10142.054769 -18232.812085 408.235198
10141.614525 -18234.763029 408.235198
10141.174281 -18236.713974 408.235198
10140.734037 -18238.664919 408.235198
10140.293793 -18240.615863 408.235198
10139.853549 -18242.566808 408.235198
10139.413305 -18244.517753 408.235198
10138.973061 -18246.468697 408.235198
10138.532816 -18248.419642 408.235198
10138.092572 -18250.370587 408.235198
10137.652328 -18252.321532 408.235198
10137.212084 -18254.272476 408.235198
10136.771840 -18256.223421 408.235198
10136.331596 -18258.174366 408.235198
10135.891352 -18260.125310 408.235198
10135.451108 -18262.076255 408.235198
10135.010864 -18264.027200 408.235198
10134.570620 -18265.978144 408.235198
10134.130376 -18267.929089 408.235198
10133.690132 -18269.880034 408.235198
10133.249887 -18271.830978 408.235198
10132.809643 -18273.781923 408.235198
10132.369399 -18275.732868 408.235198
10131.929155 -18277.683812 408.235198
10131.488911 -18279.634757 408.235198
10131.048667 -18281.585702 408.235198
10130.608423 -18283.536646 408.235198
10130.168179 -18285.487591 408.235198
10129.727935 -18287.438536 408.235198
10129.287691 -18289.389480 408.235198
10128.847447 -18291.340425 408.235198
10128.407202 -18293.291370 408.235198
10127.966958 -18295.242314 408.235198
10127.526714 -18297.193259 408.235198
10127.086470 -18299.144204 408.235198
10126.646226 -18301.095149 408.235198
10126.205982 -18303.046093 408.235198
10125.765738 -18304.997038 408.235198
10125.325494 -18306.947983 408.235198
10124.885250 -18308.898927 408.235198
10124.445006 -18310.849872 408.235198
10124.004762 -18312.800817 408.235198
10123.564518 -18314.751761 408.235198
10123.124273 -18316.702706 408.235198
10122.684029 -18318.653651 408.235198
10122.243785 -18320.604595 408.235198
10121.803541 -18322.555540 408.235198
10121.363297 -18324.506485 408.235198
10120.923053 -18326.457429 408.235198
10120.482809 -18328.408374 408.235198
10120.042565 -18330.359319 408.235198
10119.602321 -18332.310263 408.235198
10119.162077 -18334.261208 408.235198
10118.721833 -18336.212153 408.235198
10118.281589 -18338.163097 408.235198
10117.841344 -18340.114042 408.235198
10117.401100 -18342.064987 408.235198
10116.960856 -18344.015931 408.235198
10116.520612 -18345.966876 408.235198
10116.080368 -18347.917821 408.235198
10115.640124 -18349.868766 408.235198
10115.199880 -18351.819710 408.235198
10114.759636 -18353.770655 408.235198
10114.319392 -18355.721600 408.235198
10113.879148 -18357.672544 408.235198
10113.438904 -18359.623489 408.235198
10112.998659 -18361.574434 408.235198
10112.558415 -18363.525378 408.235198
10112.000000 -18366.000000 408.235198
10110.693777 -18367.478661 408.562831
10109.387555 -18368.957322 408.890465
10108.081332 -18370.435984 409.218098
10106.775110 -18371.914645 409.545732
10105.468887 -18373.393306 409.873365
10104.162665 -18374.871967 410.200998
10102.856442 -18376.350628 410.528632
10101.550219 -18377.829290 410.856265
10100.243997 -18379.307951 411.183899
10098.937774 -18380.786612 411.511532
10097.631552 -18382.265273 411.839165
10096.325329 -18383.743934 412.166799
10095.019107 -18385.222596 412.494432
10093.712884 -18386.701257 412.822065
10092.406661 -18388.179918 413.149699
10091.100439 -18389.658579 413.477332
10089.794216 -18391.137240 413.804966
10088.487994 -18392.615902 414.132599
10087.181771 -18394.094563 414.460232
10085.875548 -18395.573224 414.787866
10084.569326 -18397.051885 415.115499
10083.263103 -18398.530546 415.443133
10081.956881 -18400.009208 415.770766
10080.650658 -18401.487869 416.098399
10079.344436 -18402.966530 416.426033
10078.038213 -18404.445191 416.753666
10076.731990 -18405.923852 417.081299
10075.425768 -18407.402514 417.408933
10074.119545 -18408.881175 417.736566
10072.813323 -18410.359836 418.064200
10071.507100 -18411.838497 418.391833
10070.200878 -18413.317158 418.719466
10068.894655 -18414.795820 419.047100
10067.588432 -18416.274481 419.374733
10066.282210 -18417.753142 419.702367
10064.975987 -18419.231803 420.030000
10063.669765 -18420.710464 420.357633
10062.363542 -18422.189126 420.685267
10061.057320 -18423.667787 421.012900
10059.751097 -18425.146448 421.340533
10058.444874 -18426.625109 421.668167
10057.138652 -18428.103770 421.995800
10055.832429 -18429.582432 422.323434
10054.526207 -18431.061093 422.651067
10053.219984 -18432.539754 422.978700
10051.913761 -18434.018415 423.306334
10050.607539 -18435.497076 423.633967
10049.301316 -18436.975738 423.961601
10047.995094 -18438.454399 424.289234
10046.688871 -18439.933060 424.616867
10045.382649 -18441.411721 424.944501
10044.076426 -18442.890382 425.272134
10042.770203 -18444.369044 425.599767
10041.463981 -18445.847705 425.927401
10040.157758 -18447.326366 426.255034
10038.851536 -18448.805027 426.582668
10037.545313 -18450.283688 426.910301
10036.239091 -18451.762350 427.237934
10034.932868 -18453.241011 427.565568
10033.626645 -18454.719672 427.893201
10032.320423 -18456.198333 428.220835
10031.014200 -18457.676994 428.548468
10029.707978 -18459.155656 428.876101
10028.401755 -18460.634317 429.203735
10027.095533 -18462.112978 429.531368
10025.789310 -18463.591639 429.859001
10024.483087 -18465.070300 430.186635
10023.176865 -18466.548962 430.514268
10021.870642 -18468.027623 430.841902
10020.564420 -18469.506284 431.169535
10019.258197 -18470.984945 431.497168
10017.951974 -18472.463606 431.824802
10016.645752 -18473.942268 432.152435
10015.339529 -18475.420929 432.480069
10014.033307 -18476.899590 432.807702
10012.727084 -18478.378251 433.135335
10011.420862 -18479.856912 433.462969
10010.114639 -18481.335574 433.790602
10008.808416 -18482.814235 434.118235
10007.502194 -18484.292896 434.445869
10006.195971 -18485.771557 434.773502
10004.889749 -18487.250218 435.101136
10003.583526 -18488.728880 435.428769
10002.277304 -18490.207541 435.756402
10000.971081 -18491.686202 436.084036
9999.664858 -18493.164863 436.411669
9998.358636 -18494.643524 436.739303
9997.052413 -18496.122186 437.066936
9995.746191 -18497.600847 437.394569
9994.439968 -18499.079508 437.722203
9993.133746 -18500.558169 438.049836
9991.827523 -18502.036830 438.377470
9990.521300 -18503.515492 438.705103
9989.215078 -18504.994153 439.032736
9987.908855 -18506.472814 439.360370
9986.602633 -18507.951475 439.688003
9985.296410 -18509.430136 440.015636
9983.990188 -18510.908798 440.343270
9982.683965 -18512.387459 440.670903
9981.377742 -18513.866120 440.998537
9980.071520 -18515.344781 441.326170
9978.765297 -18516.823442 441.653803
9977.459075 -18518.302104 441.981437
9976.152852 -18519.780765 442.309070
9974.846629 -18521.259426 442.636704
9973.540407 -18522.738087 442.964337
9972.234184 -18524.216748 443.291970
9970.927962 -18525.695410 443.619604
9969.621739 -18527.174071 443.947237
9968.315517 -18528.652732 444.274870
9967.009294 -18530.131393 444.602504
9965.703071 -18531.610054 444.930137
9964.396849 -18533.088716 445.257771
9963.090626 -18534.567377 445.585404
9961.784404 -18536.046038 445.913037
9960.478181 -18537.524699 446.240671
9959.171959 -18539.003360 446.568304
9957.865736 -18540.482022 446.895938
9956.559513 -18541.960683 447.223571
9955.253291 -18543.439344 447.551204
9953.947068 -18544.918005 447.878838
9952.640846 -18546.396666 448.206471
9951.334623 -18547.875328 448.534104
9950.028401 -18549.353989 448.861738
9948.722178 -18550.832650 449.189371
9947.415955 -18552.311311 449.517005
9946.109733 -18553.789972 449.844638
9944.803510 -18555.268634 450.172271
9943.497288 -18556.747295 450.499905
9942.191065 -18558.225956 450.827538
9940.884842 -18559.704617 451.155172
9939.578620 -18561.183278 451.482805
9938.272397 -18562.661940 451.810438
9936.966175 -18564.140601 452.138072
9935.659952 -18565.619262 452.465705
9934.353730 -18567.097923 452.793338
9933.047507 -18568.576584 453.120972
9931.741284 -18570.055246 453.448605
9930.435062 -18571.533907 453.776239
9929.128839 -18573.012568 454.103872
9927.822617 -18574.491229 454.431505
9926.516394 -18575.969890 454.759139
9925.210172 -18577.448552 455.086772
9923.903949 -18578.927213 455.414406
9922.597726 -18580.405874 455.742039
9921.291504 -18581.884535 456.069672
9919.985281 -18583.363196 456.397306
9918.679059 -18584.841858 456.724939
9917.372836 -18586.320519 457.052572
9916.066614 -18587.799180 457.380206
9914.760391 -18589.277841 457.707839
9913.454168 -18590.756502 458.035473
9912.147946 -18592.235164 458.363106
9910.841723 -18593.713825 458.690739
9909.535501 -18595.192486 459.018373
9908.229278 -18596.671147 459.346006
9906.923056 -18598.149808 459.673640
9905.616833 -18599.628470 460.001273
9904.310610 -18601.107131 460.328906
9903.004388 -18602.585792 460.656540
9901.698165 -18604.064453 460.984173
9900.391943 -18605.543114 461.311806
9899.085720 -18607.021776 461.639440
9897.779497 -18608.500437 461.967073
9896.473275 -18609.979098 462.294707
9895.167052 -18611.457759 462.622340
9893.860830 -18612.936420 462.949973
9892.554607 -18614.415082 463.277607
9891.248385 -18615.893743 463.605240
9889.942162 -18617.372404 463.932874
9888.635939 -18618.851065 464.260507
9887.329717 -18620.329726 464.588140
9886.023494 -18621.808388 464.915774
9884.717272 -18623.287049 465.243407
9883.411049 -18624.765710 465.571041
9882.104827 -18626.244371 465.898674
9880.798604 -18627.723032 466.226307
9879.492381 -18629.201694 466.553941
9878.186159 -18630.680355 466.881574
9876.879936 -18632.159016 467.209207
9875.573714 -18633.637677 467.536841
9874.267491 -18635.116338 467.864474
9872.961269 -18636.595000 468.192108
9871.655046 -18638.073661 468.519741
9870.348823 -18639.552322 468.847374
9869.042601 -18641.030983 469.175008
9867.736378 -18642.509644 469.502641
9866.430156 -18643.988306 469.830275
9865.123933 -18645.466967 470.157908
9863.817710 -18646.945628 470.485541
9862.511488 -18648.424289 470.813175
9861.205265 -18649.902950 471.140808
9859.899043 -18651.381612 471.468441
9858.592820 -18652.860273 471.796075
9857.286598 -18654.338934 472.123708
9855.980375 -18655.817595 472.451342
9854.674152 -18657.296256 472.778975
9853.367930 -18658.774918 473.106608
9852.061707 -18660.253579 473.434242
9850.755485 -18661.732240 473.761875
9849.449262 -18663.210901 474.089509
9848.143040 -18664.689562 474.417142
9846.836817 -18666.168224 474.744775
9845.530594 -18667.646885 475.072409
9844.224372 -18669.125546 475.400042
9842.918149 -18670.604207 475.727675
9841.611927 -18672.082868 476.055309
9840.305704 -18673.561530 476.382942
9838.999482 -18675.040191 476.710576
9837.693259 -18676.518852 477.038209
9836.387036 -18677.997513 477.365842
9835.080814 -18679.476174 477.693476
9833.774591 -18680.954836 478.021109
9832.468369 -18682.433497 478.348743
9831.162146 -18683.912158 478.676376
9829.855923 -18685.390819 479.004009
9828.549701 -18686.869480 479.331643
9827.243478 -18688.348142 479.659276
9825.937256 -18689.826803 479.986909
9824.631033 -18691.305464 480.314543
9823.324811 -18692.784125 480.642176
9822.018588 -18694.262786 480.969810
9820.712365 -18695.741448 481.297443
9819.406143 -18697.220109 481.625076
9818.099920 -18698.698770 481.952710
9816.793698 -18700.177431 482.280343
9815.487475 -18701.656092 482.607977
9814.181253 -18703.134754 482.935610
9812.875030 -18704.613415 483.263243
9811.568807 -18706.092076 483.590877
9810.262585 -18707.570737 483.918510
9808.956362 -18709.049398 484.246143
9807.650140 -18710.528060 484.573777
9806.343917 -18712.006721 484.901410
9805.037695 -18713.485382 485.229044
9803.731472 -18714.964043 485.556677
9802.425249 -18716.442704 485.884310
9801.119027 -18717.921366 486.211944
9799.812804 -18719.400027 486.539577
9798.506582 -18720.878688 486.867211
9797.200359 -18722.357349 487.194844
9795.894137 -18723.836010 487.522477
9794.587914 -18725.314672 487.850111
9793.281691 -18726.793333 488.177744
9791.975469 -18728.271994 488.505377
9790.669246 -18729.750655 488.833011
9789.363024 -18731.229316 489.160644
9788.056801 -18732.707978 489.488278
9786.750578 -18734.186639 489.815911
9785.444356 -18735.665300 490.143544
9784.138133 -18737.143961 490.471178
9782.831911 -18738.622622 490.798811
9781.525688 -18740.101284 491.126445
9780.219466 -18741.579945 491.454078
9778.913243 -18743.058606 491.781711
9777.607020 -18744.537267 492.109345
9776.300798 -18746.015928 492.436978
9774.994575 -18747.494590 492.764612
9773.688353 -18748.973251 493.092245
9772.382130 -18750.451912 493.419878
9771.075908 -18751.930573 493.747512
9769.769685 -18753.409235 494.075145
9768.463462 -18754.887896 494.402778
9767.157240 -18756.366557 494.730412
9765.851017 -18757.845218 495.058045
9764.544795 -18759.323879 495.385679
9763.238572 -18760.802541 495.713312
9761.932350 -18762.281202 496.040945
9760.626127 -18763.759863 496.368579
9759.319904 -18765.238524 496.696212
9758.013682 -18766.717185 497.023846
9756.707459 -18768.195847 497.351479
9755.401237 -18769.674508 497.679112
9754.095014 -18771.153169 498.006746
9752.788791 -18772.631830 498.334379
9751.482569 -18774.110491 498.662012
9750.176346 -18775.589153 498.989646
9748.870124 -18777.067814 499.317279
9747.563901 -18778.546475 499.644913
9746.257679 -18780.025136 499.972546
9744.951456 -18781.503797 500.300179
9743.645233 -18782.982459 500.627813
9742.339011 -18784.461120 500.955446
9741.032788 -18785.939781 501.283080
9739.726566 -18787.418442 501.610713
9738.420343 -18788.897103 501.938346
9737.114121 -18790.375765 502.265980
9735.807898 -18791.854426 502.593613
9734.501675 -18793.333087 502.921246
9733.195453 -18794.811748 503.248880
9731.889230 -18796.290409 503.576513
9730.583008 -18797.769071 503.904147
9729.276785 -18799.247732 504.231780
9727.970563 -18800.726393 504.559413
9726.664340 -18802.205054 504.887047
9725.358117 -18803.683715 505.214680
9724.051895 -18805.162377 505.542314
9722.745672 -18806.641038 505.869947
9721.439450 -18808.119699 506.197580
9720.133227 -18809.598360 506.525214
9718.827004 -18811.077021 506.852847
9717.520782 -18812.555683 507.180480
9716.214559 -18814.034344 507.508114
9714.908337 -18815.513005 507.835747
9713.602114 -18816.991666 508.163381
9712.295892 -18818.470327 508.491014
9710.989669 -18819.948989 508.818647
9709.683446 -18821.427650 509.146281
9708.377224 -18822.906311 509.473914
9707.071001 -18824.384972 509.801548
9705.764779 -18825.863633 510.129181
9704.458556 -18827.342295 510.456814
9703.152334 -18828.820956 510.784448
9701.846111 -18830.299617 511.112081
9700.539888 -18831.778278 511.439714
9699.233666 -18833.256939 511.767348
9697.927443 -18834.735601 512.094981
9696.621221 -18836.214262 512.422615
9695.314998 -18837.692923 512.750248
9694.008776 -18839.171584 513.077881
9692.702553 -18840.650245 513.405515
9691.396330 -18842.128907 513.733148
9690.090108 -18843.607568 514.060782
9688.783885 -18845.086229 514.388415
9687.477663 -18846.564890 514.716048
9686.171440 -18848.043551 515.043682
9684.865218 -18849.522213 515.371315
9683.558995 -18851.000874 515.698948
9682.252772 -18852.479535 516.026582
9680.946550 -18853.958196 516.354215
9679.640327 -18855.436857 516.681849
9678.334105 -18856.915519 517.009482
9677.027882 -18858.394180 517.337115
9675.721659 -18859.872841 517.664749
9674.415437 -18861.351502 517.992382
9673.109214 -18862.830163 518.320016
9671.802992 -18864.308825 518.647649
9670.496769 -18865.787486 518.975282
9669.190547 -18867.266147 519.302916
9667.884324 -18868.744808 519.630549
9666.578101 -18870.223469 519.958182
9665.271879 -18871.702131 520.285816
9663.965656 -18873.180792 520.613449
9662.659434 -18874.659453 520.941083
9661.353211 -18876.138114 521.268716
9660.046989 -18877.616775 521.596349
9658.740766 -18879.095437 521.923983
9657.434543 -18880.574098 522.251616
9656.128321 -18882.052759 522.579250
9654.822098 -18883.531420 522.906883
9653.515876 -18885.010081 523.234516
9652.209653 -18886.488743 523.562150
9650.903431 -18887.967404 523.889783
9649.597208 -18889.446065 524.217417
9648.290985 -18890.924726 524.545050
9646.984763 -18892.403387 524.872683
9645.678540 -18893.882049 525.200317
9644.372318 -18895.360710 525.527950
9643.066095 -18896.839371 525.855583
9641.759872 -18898.318032 526.183217
9640.453650 -18899.796693 526.510850
9639.147427 -18901.275355 526.838484
9637.841205 -18902.754016 527.166117
9636.534982 -18904.232677 527.493750
9635.228760 -18905.711338 527.821384
9633.922537 -18907.189999 528.149017
9632.616314 -18908.668661 528.476651
9631.310092 -18910.147322 528.804284
9630.003869 -18911.625983 529.131917
9628.697647 -18913.104644 529.459551
9627.391424 -18914.583305 529.787184
9626.085202 -18916.061967 530.114817
9624.778979 -18917.540628 530.442451
9623.472756 -18919.019289 530.770084
9622.166534 -18920.497950 531.097718
9620.860311 -18921.976611 531.425351
9619.554089 -18923.455273 531.752984
9618.247866 -18924.933934 532.080618
9616.941644 -18926.412595 532.408251
9615.635421 -18927.891256 532.735885
9614.329198 -18929.369917 533.063518
9613.022976 -18930.848579 533.391151
9611.716753 -18932.327240 533.718785
9610.410531 -18933.805901 534.046418
9609.104308 -18935.284562 534.374051
9607.798085 -18936.763223 534.701685
9606.491863 -18938.241885 535.029318
9605.185640 -18939.720546 535.356952
9603.879418 -18941.199207 535.684585
9602.573195 -18942.677868 536.012218
9601.266973 -18944.156529 536.339852
9599.960750 -18945.635191 536.667485
9598.654527 -18947.113852 536.995119
9597.348305 -18948.592513 537.322752
9596.042082 -18950.071174 537.650385
9594.735860 -18951.549835 537.978019
9593.429637 -18953.028497 538.305652
9592.123415 -18954.507158 538.633285
9590.817192 -18955.985819 538.960919
9589.510969 -18957.464480 539.288552
9588.204747 -18958.943141 539.616186
9586.898524 -18960.421803 539.943819
9585.592302 -18961.900464 540.271452
9584.286079 -18963.379125 540.599086
9582.979857 -18964.857786 540.926719
9581.673634 -18966.336447 541.254353
9580.367411 -18967.815109 541.581986
9579.061189 -18969.293770 541.909619
9577.754966 -18970.772431 542.237253
9576.448744 -18972.251092 542.564886
9575.142521 -18973.729753 542.892519
9573.836299 -18975.208415 543.220153
9572.530076 -18976.687076 543.547786
9571.223853 -18978.165737 543.875420
9569.917631 -18979.644398 544.203053
9568.611408 -18981.123059 544.530686
9567.305186 -18982.601721 544.858320
9565.998963 -18984.080382 545.185953
9564.692740 -18985.559043 545.513587
9563.386518 -18987.037704 545.841220
9562.080295 -18988.516365 546.168853
9560.774073 -18989.995027 546.496487
9559.467850 -18991.473688 546.824120
9558.161628 -18992.952349 547.151753
9556.855405 -18994.431010 547.479387
9555.549182 -18995.909671 547.807020
9554.242960 -18997.388333 548.134654
9552.936737 -18998.866994 548.462287
9551.630515 -19000.345655 548.789920
9550.324292 -19001.824316 549.117554
9549.018070 -19003.302977 549.445187
9547.711847 -19004.781639 549.772821
9546.405624 -19006.260300 550.100454
9545.099402 -19007.738961 550.428087
9543.793179 -19009.217622 550.755721
9542.486957 -19010.696283 551.083354
9541.180734 -19012.174945 551.410988
9539.874512 -19013.653606 551.738621
9538.568289 -19015.132267 552.066254
9537.262066 -19016.610928 552.393888
9535.955844 -19018.089589 552.721521
9534.649621 -19019.568251 553.049154
9533.343399 -19021.046912 553.376788
9532.037176 -19022.525573 553.704421
9530.730953 -19024.004234 554.032055
9529.424731 -19025.482895 554.359688
9528.118508 -19026.961557 554.687321
9526.812286 -19028.440218 555.014955
9525.506063 -19029.918879 555.342588
9524.199841 -19031.397540 555.670222
9522.893618 -19032.876201 555.997855
9521.587395 -19034.354863 556.325488
9520.281173 -19035.833524 556.653122
9518.974950 -19037.312185 556.980755
9517.668728 -19038.790846 557.308388
9516.362505 -19040.269507 557.636022
9515.056283 -19041.748169 557.963655
9513.750060 -19043.226830 558.291289
9512.443837 -19044.705491 558.618922
9511.137615 -19046.184152 558.946555
9509.831392 -19047.662813 559.274189
9508.525170 -19049.141475 559.601822
9506.000000 -19052.000000 560.235198
9505.990631 -19053.930000 559.710783
9505.981262 -19055.860000 559.186367
9505.971893 -19057.790001 558.661952
9505.962524 -19059.720001 558.137536
9505.953155 -19061.650001 557.613121
9505.943786 -19063.580001 557.088706
9505.934417 -19065.510001 556.564290
9505.925049 -19067.440001 556.039875
9505.915680 -19069.370002 555.515459
9505.906311 -19071.300002 554.991044
9505.896942 -19073.230002 554.466629
9505.887573 -19075.160002 553.942213
9505.878204 -19077.090002 553.417798
9505.868835 -19079.020003 552.893382
9505.859466 -19080.950003 552.368967
9505.850097 -19082.880003 551.844552
9505.840728 -19084.810003 551.320136
9505.831359 -19086.740003 550.795721
9505.821990 -19088.670003 550.271305
9505.812621 -19090.600004 549.746890
9505.803252 -19092.530004 549.222475
9505.793883 -19094.460004 548.698059
9505.784515 -19096.390004 548.173644
9505.775146 -19098.320004 547.649228
9505.765777 -19100.250005 547.124813
9505.756408 -19102.180005 546.600398
9505.747039 -19104.110005 546.075982
9505.737670 -19106.040005 545.551567
9505.728301 -19107.970005 545.027151
9505.718932 -19109.900005 544.502736
9505.709563 -19111.830006 543.978320
9505.700194 -19113.760006 543.453905
9505.690825 -19115.690006 542.929490
9505.681456 -19117.620006 542.405074
9505.672087 -19119.550006 541.880659
9505.662718 -19121.480007 541.356243
9505.653349 -19123.410007 540.831828
9505.643981 -19125.340007 540.307413
9505.634612 -19127.270007 539.782997
9505.625243 -19129.200007 539.258582
9505.615874 -19131.130008 538.734166
9505.606505 -19133.060008 538.209751
9505.597136 -19134.990008 537.685336
9505.587767 -19136.920008 537.160920
9505.578398 -19138.850008 536.636505
9505.569029 -19140.780008 536.112089
9505.559660 -19142.710009 535.587674
9505.550291 -19144.640009 535.063259
9505.540922 -19146.570009 534.538843
9505.531553 -19148.500009 534.014428
9505.522184 -19150.430009 533.490012
9505.512815 -19152.360010 532.965597
9505.503447 -19154.290010 532.441182
9505.494078 -19156.220010 531.916766
9505.484709 -19158.150010 531.392351
9505.475340 -19160.080010 530.867935
9505.465971 -19162.010010 530.343520
9505.456602 -19163.940011 529.819105
9505.447233 -19165.870011 529.294689
9505.437864 -19167.800011 528.770274
9505.428495 -19169.730011 528.245858
9505.419126 -19171.660011 527.721443
9505.409757 -19173.590012 527.197028
9505.400388 -19175.520012 526.672612
9505.391019 -19177.450012 526.148197
9505.381650 -19179.380012 525.623781
9505.372281 -19181.310012 525.099366
9505.362913 -19183.240012 524.574951
9505.353544 -19185.170013 524.050535
9505.344175 -19187.100013 523.526120
9505.334806 -19189.030013 523.001704
9505.325437 -19190.960013 522.477289
9505.316068 -19192.890013 521.952874
9505.306699 -19194.820014 521.428458
9505.297330 -19196.750014 520.904043
9505.287961 -19198.680014 520.379627
9505.278592 -19200.610014 519.855212
9505.269223 -19202.540014 519.330796
9505.259854 -19204.470014 518.806381
9505.250485 -19206.400015 518.281966
9505.241116 -19208.330015 517.757550
9505.231747 -19210.260015 517.233135
9505.222379 -19212.190015 516.708719
9505.213010 -19214.120015 516.184304
9505.203641 -19216.050016 515.659889
9505.194272 -19217.980016 515.135473
9505.184903 -19219.910016 514.611058
9505.175534 -19221.840016 514.086642
