13001.744542 -19629.000000 -213.337635
13000.541536 -19629.000000 -214.935376
12999.338531 -19629.000000 -216.533118
12998.135525 -19629.000000 -218.130859
12996.932520 -19629.000000 -219.728601
12995.729515 -19629.000000 -221.326342
12994.526509 -19629.000000 -222.924084
12993.323504 -19629.000000 -224.521825
12992.120498 -19629.000000 -226.119567
12990.917493 -19629.000000 -227.717309
12989.714488 -19629.000000 -229.315050
12988.511482 -19629.000000 -230.912792
12987.308477 -19629.000000 -232.510533
12986.105471 -19629.000000 -234.108275
12984.902466 -19629.000000 -235.706016
12983.699461 -19629.000000 -237.303758
12982.496455 -19629.000000 -238.901499
12981.293450 -19629.000000 -240.499241
12980.090444 -19629.000000 -242.096982
12978.887439 -19629.000000 -243.694724
12977.684434 -19629.000000 -245.292465
12976.000000 -19629.000000 -247.529604
12975.714746 -19628.982172 -249.509077
12975.429492 -19628.964343 -251.488549
12975.144238 -19628.946515 -253.468022
12974.858985 -19628.928687 -255.447495
12974.573731 -19628.910858 -257.426968
12974.288477 -19628.893030 -259.406440
12974.003223 -19628.875201 -261.385913
12973.717969 -19628.857373 -263.365386
12973.432715 -19628.839545 -265.344859
12973.147461 -19628.821716 -267.324331
12972.862208 -19628.803888 -269.303804
12972.576954 -19628.786060 -271.283277
12972.291700 -19628.768231 -273.262750
12972.006446 -19628.750403 -275.242222
12971.721192 -19628.732575 -277.221695
12971.435938 -19628.714746 -279.201168
12971.150684 -19628.696918 -281.180641
12970.865431 -19628.679089 -283.160114
12970.580177 -19628.661261 -285.139586
12970.294923 -19628.643433 -287.119059
12970.009669 -19628.625604 -289.098532
12969.724415 -19628.607776 -291.078005
12969.439161 -19628.589948 -293.057477
12969.153908 -19628.572119 -295.036950
12968.868654 -19628.554291 -297.016423
12968.583400 -19628.536462 -298.995896
12968.298146 -19628.518634 -300.975368
12968.012892 -19628.500806 -302.954841
12967.727638 -19628.482977 -304.934314
12967.442384 -19628.465149 -306.913787
12967.157131 -19628.447321 -308.893259
12966.871877 -19628.429492 -310.872732
12966.586623 -19628.411664 -312.852205
12966.301369 -19628.393836 -314.831678
12966.016115 -19628.376007 -316.811150
12965.730861 -19628.358179 -318.790623
12965.445607 -19628.340350 -320.770096
12965.160354 -19628.322522 -322.749569
12964.875100 -19628.304694 -324.729041
12964.589846 -19628.286865 -326.708514
12964.304592 -19628.269037 -328.687987
12964.019338 -19628.251209 -330.667460
12963.734084 -19628.233380 -332.646932
12963.448830 -19628.215552 -334.626405
12963.163577 -19628.197724 -336.605878
12962.878323 -19628.179895 -338.585351
12962.593069 -19628.162067 -340.564823
12962.307815 -19628.144238 -342.544296
12962.022561 -19628.126410 -344.523769
12961.737307 -19628.108582 -346.503242
12961.452053 -19628.090753 -348.482714
12961.166800 -19628.072925 -350.462187
12960.881546 -19628.055097 -352.441660
12960.596292 -19628.037268 -354.421133
12960.311038 -19628.019440 -356.400605
12960.025784 -19628.001612 -358.380078
12959.740530 -19627.983783 -360.359551
12959.455277 -19627.965955 -362.339024
12959.170023 -19627.948126 -364.318496
12958.884769 -19627.930298 -366.297969
12958.599515 -19627.912470 -368.277442
12958.314261 -19627.894641 -370.256915
12958.029007 -19627.876813 -372.236387
12957.743753 -19627.858985 -374.215860
12957.458500 -19627.841156 -376.195333
12957.173246 -19627.823328 -378.174806
12956.887992 -19627.805499 -380.154279
12956.602738 -19627.787671 -382.133751
12956.317484 -19627.769843 -384.113224
12956.032230 -19627.752014 -386.092697
12955.746976 -19627.734186 -388.072170
12955.461723 -19627.716358 -390.051642
12955.176469 -19627.698529 -392.031115
12954.891215 -19627.680701 -394.010588
12954.605961 -19627.662873 -395.990061
12954.320707 -19627.645044 -397.969533
12954.035453 -19627.627216 -399.949006
12953.750199 -19627.609387 -401.928479
12953.464946 -19627.591559 -403.907952
12953.179692 -19627.573731 -405.887424
12952.894438 -19627.555902 -407.866897
12952.609184 -19627.538074 -409.846370
12952.323930 -19627.520246 -411.825843
12952.038676 -19627.502417 -413.805315
12951.753422 -19627.484589 -415.784788
12951.468169 -19627.466761 -417.764261
12951.182915 -19627.448932 -419.743734
12950.897661 -19627.431104 -421.723206
12950.612407 -19627.413275 -423.702679
12950.327153 -19627.395447 -425.682152
12950.041899 -19627.377619 -427.661625
12949.756646 -19627.359790 -429.641097
12949.471392 -19627.341962 -431.620570
12949.186138 -19627.324134 -433.600043
12948.900884 -19627.306305 -435.579516
12948.615630 -19627.288477 -437.558988
12948.330376 -19627.270649 -439.538461
12948.045122 -19627.252820 -441.517934
12947.759869 -19627.234992 -443.497407
12947.474615 -19627.217163 -445.476879
12947.189361 -19627.199335 -447.456352
12946.904107 -19627.181507 -449.435825
12946.618853 -19627.163678 -451.415298
12946.333599 -19627.145850 -453.394770
12946.048345 -19627.128022 -455.374243
12945.763092 -19627.110193 -457.353716
12945.477838 -19627.092365 -459.333189
12945.192584 -19627.074536 -461.312661
12944.907330 -19627.056708 -463.292134
12944.622076 -19627.038880 -465.271607
12944.336822 -19627.021051 -467.251080
12944.051568 -19627.003223 -469.230553
12943.766315 -19626.985395 -471.210025
12943.481061 -19626.967566 -473.189498
12943.195807 -19626.949738 -475.168971
12942.910553 -19626.931910 -477.148444
12942.625299 -19626.914081 -479.127916
12942.340045 -19626.896253 -481.107389
12942.054791 -19626.878424 -483.086862
12941.769538 -19626.860596 -485.066335
12941.484284 -19626.842768 -487.045807
12941.199030 -19626.824939 -489.025280
12940.913776 -19626.807111 -491.004753
12940.628522 -19626.789283 -492.984226
12940.343268 -19626.771454 -494.963698
12940.058015 -19626.753626 -496.943171
12939.772761 -19626.735798 -498.922644
12939.487507 -19626.717969 -500.902117
12939.202253 -19626.700141 -502.881589
12938.916999 -19626.682312 -504.861062
12938.631745 -19626.664484 -506.840535
12938.346491 -19626.646656 -508.820008
12938.061238 -19626.628827 -510.799480
12937.775984 -19626.610999 -512.778953
12937.490730 -19626.593171 -514.758426
12937.205476 -19626.575342 -516.737899
12936.920222 -19626.557514 -518.717371
12936.634968 -19626.539686 -520.696844
12936.349714 -19626.521857 -522.676317
12936.064461 -19626.504029 -524.655790
12935.779207 -19626.486200 -526.635262
12935.493953 -19626.468372 -528.614735
12935.208699 -19626.450544 -530.594208
12934.923445 -19626.432715 -532.573681
12934.638191 -19626.414887 -534.553153
12934.352937 -19626.397059 -536.532626
12934.067684 -19626.379230 -538.512099
12933.782430 -19626.361402 -540.491572
12933.497176 -19626.343573 -542.471044
12933.211922 -19626.325745 -544.450517
12932.926668 -19626.307917 -546.429990
12932.641414 -19626.290088 -548.409463
12932.356160 -19626.272260 -550.388935
12932.070907 -19626.254432 -552.368408
12931.785653 -19626.236603 -554.347881
12931.500399 -19626.218775 -556.327354
12931.215145 -19626.200947 -558.306826
12930.929891 -19626.183118 -560.286299
12930.644637 -19626.165290 -562.265772
12930.359384 -19626.147461 -564.245245
12930.074130 -19626.129633 -566.224718
12929.788876 -19626.111805 -568.204190
12929.503622 -19626.093976 -570.183663
12929.218368 -19626.076148 -572.163136
12928.933114 -19626.058320 -574.142609
12928.647860 -19626.040491 -576.122081
12928.362607 -19626.022663 -578.101554
12928.077353 -19626.004835 -580.081027
12927.792099 -19625.987006 -582.060500
12927.506845 -19625.969178 -584.039972
12927.221591 -19625.951349 -586.019445
12926.936337 -19625.933521 -587.998918
12926.651083 -19625.915693 -589.978391
12926.365830 -19625.897864 -591.957863
12926.080576 -19625.880036 -593.937336
12925.795322 -19625.862208 -595.916809
12925.510068 -19625.844379 -597.896282
12925.224814 -19625.826551 -599.875754
12924.939560 -19625.808723 -601.855227
12924.654306 -19625.790894 -603.834700
12924.369053 -19625.773066 -605.814173
12924.083799 -19625.755237 -607.793645
12923.798545 -19625.737409 -609.773118
12923.513291 -19625.719581 -611.752591
12923.228037 -19625.701752 -613.732064
12922.942783 -19625.683924 -615.711536
12922.657529 -19625.666096 -617.691009
12922.372276 -19625.648267 -619.670482
12922.087022 -19625.630439 -621.649955
12921.801768 -19625.612610 -623.629427
12921.516514 -19625.594782 -625.608900
12921.231260 -19625.576954 -627.588373
12920.946006 -19625.559125 -629.567846
12920.660753 -19625.541297 -631.547318
12920.375499 -19625.523469 -633.526791
12920.090245 -19625.505640 -635.506264
12919.804991 -19625.487812 -637.485737
12919.519737 -19625.469984 -639.465209
12919.234483 -19625.452155 -641.444682
12918.949229 -19625.434327 -643.424155
12918.663976 -19625.416498 -645.403628
12918.378722 -19625.398670 -647.383100
12918.093468 -19625.380842 -649.362573
12917.808214 -19625.363013 -651.342046
12917.522960 -19625.345185 -653.321519
12917.237706 -19625.327357 -655.300991
12916.952452 -19625.309528 -657.280464
12916.667199 -19625.291700 -659.259937
12916.381945 -19625.273872 -661.239410
12916.096691 -19625.256043 -663.218883
12915.811437 -19625.238215 -665.198355
12915.526183 -19625.220386 -667.177828
12915.240929 -19625.202558 -669.157301
12914.955675 -19625.184730 -671.136774
12914.670422 -19625.166901 -673.116246
12914.385168 -19625.149073 -675.095719
12914.099914 -19625.131245 -677.075192
12913.814660 -19625.113416 -679.054665
12913.529406 -19625.095588 -681.034137
12913.244152 -19625.077760 -683.013610
12912.958898 -19625.059931 -684.993083
12912.673645 -19625.042103 -686.972556
12912.388391 -19625.024274 -688.952028
12912.103137 -19625.006446 -690.931501
12911.817883 -19624.988618 -692.910974
12911.532629 -19624.970789 -694.890447
12911.247375 -19624.952961 -696.869919
12910.962122 -19624.935133 -698.849392
12910.676868 -19624.917304 -700.828865
12910.391614 -19624.899476 -702.808338
12910.106360 -19624.881647 -704.787810
12909.821106 -19624.863819 -706.767283
12909.535852 -19624.845991 -708.746756
12909.250598 -19624.828162 -710.726229
12908.965345 -19624.810334 -712.705701
12908.680091 -19624.792506 -714.685174
12908.394837 -19624.774677 -716.664647
12908.109583 -19624.756849 -718.644120
12907.824329 -19624.739021 -720.623592
12907.539075 -19624.721192 -722.603065
12907.253821 -19624.703364 -724.582538
12906.968568 -19624.685535 -726.562011
12906.683314 -19624.667707 -728.541483
12906.398060 -19624.649879 -730.520956
12906.112806 -19624.632050 -732.500429
12905.827552 -19624.614222 -734.479902
12905.542298 -19624.596394 -736.459374
12905.257044 -19624.578565 -738.438847
12904.971791 -19624.560737 -740.418320
12904.686537 -19624.542909 -742.397793
12904.401283 -19624.525080 -744.377265
12904.116029 -19624.507252 -746.356738
12903.830775 -19624.489423 -748.336211
12903.545521 -19624.471595 -750.315684
12903.260267 -19624.453767 -752.295157
12902.975014 -19624.435938 -754.274629
12902.689760 -19624.418110 -756.254102
12902.404506 -19624.400282 -758.233575
12902.119252 -19624.382453 -760.213048
12901.833998 -19624.364625 -762.192520
12901.548744 -19624.346797 -764.171993
12901.263490 -19624.328968 -766.151466
12900.978237 -19624.311140 -768.130939
12900.692983 -19624.293311 -770.110411
12900.407729 -19624.275483 -772.089884
12900.122475 -19624.257655 -774.069357
12899.837221 -19624.239826 -776.048830
12899.551967 -19624.221998 -778.028302
12899.266714 -19624.204170 -780.007775
12898.981460 -19624.186341 -781.987248
12898.696206 -19624.168513 -783.966721
12898.410952 -19624.150684 -785.946193
12898.125698 -19624.132856 -787.925666
12897.840444 -19624.115028 -789.905139
12897.555190 -19624.097199 -791.884612
12897.269937 -19624.079371 -793.864084
12896.984683 -19624.061543 -795.843557
12896.699429 -19624.043714 -797.823030
12896.414175 -19624.025886 -799.802503
12896.128921 -19624.008058 -801.781975
12895.843667 -19623.990229 -803.761448
12895.558413 -19623.972401 -805.740921
12895.273160 -19623.954572 -807.720394
12894.987906 -19623.936744 -809.699866
12894.702652 -19623.918916 -811.679339
12894.417398 -19623.901087 -813.658812
12894.132144 -19623.883259 -815.638285
12893.846890 -19623.865431 -817.617757
12893.561636 -19623.847602 -819.597230
12893.276383 -19623.829774 -821.576703
12892.991129 -19623.811946 -823.556176
12892.705875 -19623.794117 -825.535648
12892.420621 -19623.776289 -827.515121
12892.135367 -19623.758460 -829.494594
12891.850113 -19623.740632 -831.474067
12891.564859 -19623.722804 -833.453539
12891.279606 -19623.704975 -835.433012
12890.994352 -19623.687147 -837.412485
12890.709098 -19623.669319 -839.391958
12890.423844 -19623.651490 -841.371430
12890.138590 -19623.633662 -843.350903
12889.853336 -19623.615834 -845.330376
12889.568083 -19623.598005 -847.309849
12889.282829 -19623.580177 -849.289322
12888.997575 -19623.562348 -851.268794
12888.712321 -19623.544520 -853.248267
12888.427067 -19623.526692 -855.227740
12888.141813 -19623.508863 -857.207213
12887.856559 -19623.491035 -859.186685
12887.571306 -19623.473207 -861.166158
12887.286052 -19623.455378 -863.145631
12887.000798 -19623.437550 -865.125104
12886.715544 -19623.419721 -867.104576
12886.430290 -19623.401893 -869.084049
12886.145036 -19623.384065 -871.063522
12885.859782 -19623.366236 -873.042995
12885.574529 -19623.348408 -875.022467
12885.289275 -19623.330580 -877.001940
12885.004021 -19623.312751 -878.981413
12884.718767 -19623.294923 -880.960886
12884.433513 -19623.277095 -882.940358
12884.148259 -19623.259266 -884.919831
12883.863005 -19623.241438 -886.899304
12883.577752 -19623.223609 -888.878777
12883.292498 -19623.205781 -890.858249
12883.007244 -19623.187953 -892.837722
12882.721990 -19623.170124 -894.817195
12882.436736 -19623.152296 -896.796668
12882.151482 -19623.134468 -898.776140
12881.866228 -19623.116639 -900.755613
12881.580975 -19623.098811 -902.735086
12881.295721 -19623.080983 -904.714559
12881.010467 -19623.063154 -906.694031
12880.725213 -19623.045326 -908.673504
12880.439959 -19623.027497 -910.652977
12880.154705 -19623.009669 -912.632450
12879.869452 -19622.991841 -914.611922
12879.584198 -19622.974012 -916.591395
12879.298944 -19622.956184 -918.570868
12879.013690 -19622.938356 -920.550341
12878.728436 -19622.920527 -922.529813
12878.443182 -19622.902699 -924.509286
12878.157928 -19622.884871 -926.488759
12877.872675 -19622.867042 -928.468232
12877.587421 -19622.849214 -930.447704
12877.302167 -19622.831385 -932.427177
12877.016913 -19622.813557 -934.406650
12876.731659 -19622.795729 -936.386123
12876.446405 -19622.777900 -938.365595
12876.161151 -19622.760072 -940.345068
12875.875898 -19622.742244 -942.324541
12875.590644 -19622.724415 -944.304014
12875.305390 -19622.706587 -946.283487
12875.020136 -19622.688759 -948.262959
12874.734882 -19622.670930 -950.242432
12874.449628 -19622.653102 -952.221905
12874.164374 -19622.635273 -954.201378
12873.879121 -19622.617445 -956.180850
12873.593867 -19622.599617 -958.160323
12873.308613 -19622.581788 -960.139796
12873.023359 -19622.563960 -962.119269
12872.738105 -19622.546132 -964.098741
12872.452851 -19622.528303 -966.078214
12872.167597 -19622.510475 -968.057687
12871.882344 -19622.492646 -970.037160
12871.597090 -19622.474818 -972.016632
12871.311836 -19622.456990 -973.996105
12871.026582 -19622.439161 -975.975578
12870.741328 -19622.421333 -977.955051
12870.456074 -19622.403505 -979.934523
12870.170821 -19622.385676 -981.913996
12869.885567 -19622.367848 -983.893469
12869.600313 -19622.350020 -985.872942
12869.315059 -19622.332191 -987.852414
12869.029805 -19622.314363 -989.831887
12868.744551 -19622.296534 -991.811360
12868.459297 -19622.278706 -993.790833
12868.174044 -19622.260878 -995.770305
12867.888790 -19622.243049 -997.749778
12867.603536 -19622.225221 -999.729251
12867.318282 -19622.207393 -1001.708724
12867.033028 -19622.189564 -1003.688196
12866.747774 -19622.171736 -1005.667669
12866.462520 -19622.153908 -1007.647142
12866.177267 -19622.136079 -1009.626615
12865.892013 -19622.118251 -1011.606087
12865.606759 -19622.100422 -1013.585560
12865.321505 -19622.082594 -1015.565033
12865.036251 -19622.064766 -1017.544506
12864.750997 -19622.046937 -1019.523978
12864.465743 -19622.029109 -1021.503451
12864.180490 -19622.011281 -1023.482924
12863.895236 -19621.993452 -1025.462397
12863.609982 -19621.975624 -1027.441869
12863.324728 -19621.957796 -1029.421342
12863.039474 -19621.939967 -1031.400815
12862.754220 -19621.922139 -1033.380288
12862.468966 -19621.904310 -1035.359761
12862.183713 -19621.886482 -1037.339233
12861.898459 -19621.868654 -1039.318706
12861.613205 -19621.850825 -1041.298179
12861.327951 -19621.832997 -1043.277652
12861.042697 -19621.815169 -1045.257124
12860.757443 -19621.797340 -1047.236597
12860.472190 -19621.779512 -1049.216070
12860.186936 -19621.761683 -1051.195543
12859.901682 -19621.743855 -1053.175015
12859.616428 -19621.726027 -1055.154488
12859.331174 -19621.708198 -1057.133961
12859.045920 -19621.690370 -1059.113434
12858.760666 -19621.672542 -1061.092906
12858.475413 -19621.654713 -1063.072379
12858.190159 -19621.636885 -1065.051852
12857.904905 -19621.619057 -1067.031325
12857.619651 -19621.601228 -1069.010797
12857.334397 -19621.583400 -1070.990270
12857.049143 -19621.565571 -1072.969743
12856.763889 -19621.547743 -1074.949216
12856.478636 -19621.529915 -1076.928688
12856.193382 -19621.512086 -1078.908161
12855.908128 -19621.494258 -1080.887634
12855.622874 -19621.476430 -1082.867107
12855.337620 -19621.458601 -1084.846579
12855.052366 -19621.440773 -1086.826052
12854.767112 -19621.422945 -1088.805525
12854.481859 -19621.405116 -1090.784998
12854.196605 -19621.387288 -1092.764470
12853.911351 -19621.369459 -1094.743943
12853.626097 -19621.351631 -1096.723416
12853.340843 -19621.333803 -1098.702889
12853.055589 -19621.315974 -1100.682361
12852.770335 -19621.298146 -1102.661834
12852.485082 -19621.280318 -1104.641307
12852.199828 -19621.262489 -1106.620780
12851.914574 -19621.244661 -1108.600252
12851.629320 -19621.226833 -1110.579725
12851.344066 -19621.209004 -1112.559198
12851.058812 -19621.191176 -1114.538671
12850.773559 -19621.173347 -1116.518143
12850.488305 -19621.155519 -1118.497616
12850.203051 -19621.137691 -1120.477089
12849.917797 -19621.119862 -1122.456562
12849.632543 -19621.102034 -1124.436034
12849.347289 -19621.084206 -1126.415507
12849.062035 -19621.066377 -1128.394980
12848.776782 -19621.048549 -1130.374453
12848.491528 -19621.030720 -1132.353926
12848.000000 -19621.000000 -1135.764802
12846.169245 -19620.194807 -1135.764802
12844.338490 -19619.389614 -1135.764802
12842.507735 -19618.584420 -1135.764802
12840.676980 -19617.779227 -1135.764802
12838.846225 -19616.974034 -1135.764802
12837.015470 -19616.168841 -1135.764802
12835.184715 -19615.363648 -1135.764802
12833.353960 -19614.558455 -1135.764802
12831.523205 -19613.753261 -1135.764802
12829.692450 -19612.948068 -1135.764802
12827.861695 -19612.142875 -1135.764802
12826.030940 -19611.337682 -1135.764802
12824.200185 -19610.532489 -1135.764802
12822.369430 -19609.727295 -1135.764802
12820.538675 -19608.922102 -1135.764802
12818.707920 -19608.116909 -1135.764802
12816.877165 -19607.311716 -1135.764802
12815.046410 -19606.506523 -1135.764802
12813.215655 -19605.701330 -1135.764802
12811.384900 -19604.896136 -1135.764802
12809.554145 -19604.090943 -1135.764802
12807.723390 -19603.285750 -1135.764802
12805.892635 -19602.480557 -1135.764802
12804.061880 -19601.675364 -1135.764802
12802.231125 -19600.870170 -1135.764802
12800.400369 -19600.064977 -1135.764802
12798.569614 -19599.259784 -1135.764802
12796.738859 -19598.454591 -1135.764802
12794.908104 -19597.649398 -1135.764802
12793.077349 -19596.844205 -1135.764802
12791.246594 -19596.039011 -1135.764802
12789.415839 -19595.233818 -1135.764802
12787.585084 -19594.428625 -1135.764802
12785.754329 -19593.623432 -1135.764802
12783.923574 -19592.818239 -1135.764802
12782.092819 -19592.013046 -1135.764802
12780.262064 -19591.207852 -1135.764802
12778.431309 -19590.402659 -1135.764802
12776.600554 -19589.597466 -1135.764802
12774.769799 -19588.792273 -1135.764802
12772.939044 -19587.987080 -1135.764802
12771.108289 -19587.181886 -1135.764802
12769.277534 -19586.376693 -1135.764802
12767.446779 -19585.571500 -1135.764802
12765.616024 -19584.766307 -1135.764802
12763.785269 -19583.961114 -1135.764802
12761.954514 -19583.155921 -1135.764802
12760.123759 -19582.350727 -1135.764802
12758.293004 -19581.545534 -1135.764802
12756.462249 -19580.740341 -1135.764802
12754.631494 -19579.935148 -1135.764802
12752.800739 -19579.129955 -1135.764802
12750.969984 -19578.324761 -1135.764802
12749.139229 -19577.519568 -1135.764802
12747.308474 -19576.714375 -1135.764802
12745.477719 -19575.909182 -1135.764802
12743.646964 -19575.103989 -1135.764802
12741.816209 -19574.298796 -1135.764802
12739.985454 -19573.493602 -1135.764802
12738.154699 -19572.688409 -1135.764802
12736.323944 -19571.883216 -1135.764802
12734.493189 -19571.078023 -1135.764802
12732.662434 -19570.272830 -1135.764802
12730.831679 -19569.467636 -1135.764802
12729.000924 -19568.662443 -1135.764802
12727.170169 -19567.857250 -1135.764802
12725.339414 -19567.052057 -1135.764802
12723.508659 -19566.246864 -1135.764802
12721.677904 -19565.441671 -1135.764802
12719.847149 -19564.636477 -1135.764802
12718.016394 -19563.831284 -1135.764802
12716.185639 -19563.026091 -1135.764802
12714.354884 -19562.220898 -1135.764802
12712.524129 -19561.415705 -1135.764802
12710.693374 -19560.610511 -1135.764802
12708.862618 -19559.805318 -1135.764802
12707.031863 -19559.000125 -1135.764802
12705.201108 -19558.194932 -1135.764802
12703.370353 -19557.389739 -1135.764802
12701.539598 -19556.584546 -1135.764802
12699.708843 -19555.779352 -1135.764802
12697.878088 -19554.974159 -1135.764802
12696.047333 -19554.168966 -1135.764802
12694.216578 -19553.363773 -1135.764802
12692.385823 -19552.558580 -1135.764802
12690.555068 -19551.753387 -1135.764802
12688.724313 -19550.948193 -1135.764802
12686.893558 -19550.143000 -1135.764802
12685.062803 -19549.337807 -1135.764802
12683.232048 -19548.532614 -1135.764802
12681.401293 -19547.727421 -1135.764802
12679.570538 -19546.922227 -1135.764802
12677.739783 -19546.117034 -1135.764802
12675.909028 -19545.311841 -1135.764802
12674.078273 -19544.506648 -1135.764802
12672.247518 -19543.701455 -1135.764802
12670.416763 -19542.896262 -1135.764802
12668.586008 -19542.091068 -1135.764802
12666.755253 -19541.285875 -1135.764802
12664.924498 -19540.480682 -1135.764802
12663.093743 -19539.675489 -1135.764802
12661.262988 -19538.870296 -1135.764802
12659.432233 -19538.065102 -1135.764802
12657.601478 -19537.259909 -1135.764802
12655.770723 -19536.454716 -1135.764802
12653.939968 -19535.649523 -1135.764802
12652.109213 -19534.844330 -1135.764802
12650.278458 -19534.039137 -1135.764802
12648.447703 -19533.233943 -1135.764802
12646.616948 -19532.428750 -1135.764802
12644.786193 -19531.623557 -1135.764802
12642.955438 -19530.818364 -1135.764802
12641.124683 -19530.013171 -1135.764802
12639.293928 -19529.207977 -1135.764802
12637.463173 -19528.402784 -1135.764802
12635.632418 -19527.597591 -1135.764802
12632.000000 -19526.000000 -1135.764802
12630.013441 -19525.768515 -1135.764802
12628.026883 -19525.537031 -1135.764802
12626.040324 -19525.305546 -1135.764802
12624.053766 -19525.074062 -1135.764802
12622.067207 -19524.842577 -1135.764802
12620.080649 -19524.611093 -1135.764802
12618.094090 -19524.379608 -1135.764802
12616.107532 -19524.148123 -1135.764802
12614.120973 -19523.916639 -1135.764802
12612.134414 -19523.685154 -1135.764802
12610.147856 -19523.453670 -1135.764802
12608.161297 -19523.222185 -1135.764802
12606.174739 -19522.990700 -1135.764802
12604.188180 -19522.759216 -1135.764802
12602.201622 -19522.527731 -1135.764802
12600.215063 -19522.296247 -1135.764802
12598.228505 -19522.064762 -1135.764802
12596.241946 -19521.833278 -1135.764802
12594.255387 -19521.601793 -1135.764802
12592.268829 -19521.370308 -1135.764802
12590.282270 -19521.138824 -1135.764802
12588.295712 -19520.907339 -1135.764802
12586.309153 -19520.675855 -1135.764802
12584.322595 -19520.444370 -1135.764802
12582.336036 -19520.212886 -1135.764802
12580.349478 -19519.981401 -1135.764802
12578.362919 -19519.749916 -1135.764802
12576.376360 -19519.518432 -1135.764802
12574.389802 -19519.286947 -1135.764802
12572.403243 -19519.055463 -1135.764802
12570.416685 -19518.823978 -1135.764802
12568.430126 -19518.592494 -1135.764802
12566.443568 -19518.361009 -1135.764802
12564.457009 -19518.129524 -1135.764802
12562.470451 -19517.898040 -1135.764802
12560.483892 -19517.666555 -1135.764802
12558.497333 -19517.435071 -1135.764802
12556.510775 -19517.203586 -1135.764802
12554.524216 -19516.972101 -1135.764802
12552.537658 -19516.740617 -1135.764802
12550.551099 -19516.509132 -1135.764802
12548.564541 -19516.277648 -1135.764802
12546.577982 -19516.046163 -1135.764802
12544.591424 -19515.814679 -1135.764802
12542.604865 -19515.583194 -1135.764802
12540.618306 -19515.351709 -1135.764802
12538.631748 -19515.120225 -1135.764802
12536.645189 -19514.888740 -1135.764802
12534.658631 -19514.657256 -1135.764802
12532.672072 -19514.425771 -1135.764802
12530.685514 -19514.194287 -1135.764802
12528.698955 -19513.962802 -1135.764802
12526.712397 -19513.731317 -1135.764802
12524.725838 -19513.499833 -1135.764802
12522.739280 -19513.268348 -1135.764802
12520.752721 -19513.036864 -1135.764802
12518.766162 -19512.805379 -1135.764802
12516.779604 -19512.573895 -1135.764802
12514.793045 -19512.342410 -1135.764802
12512.806487 -19512.110925 -1135.764802
12510.819928 -19511.879441 -1135.764802
12508.833370 -19511.647956 -1135.764802
12506.846811 -19511.416472 -1135.764802
12504.860253 -19511.184987 -1135.764802
12502.873694 -19510.953502 -1135.764802
12500.887135 -19510.722018 -1135.764802
12498.900577 -19510.490533 -1135.764802
12496.914018 -19510.259049 -1135.764802
12494.927460 -19510.027564 -1135.764802
12492.940901 -19509.796080 -1135.764802
12490.954343 -19509.564595 -1135.764802
12488.967784 -19509.333110 -1135.764802
12486.981226 -19509.101626 -1135.764802
12484.994667 -19508.870141 -1135.764802
12483.008108 -19508.638657 -1135.764802
12481.021550 -19508.407172 -1135.764802
12479.034991 -19508.175688 -1135.764802
12477.048433 -19507.944203 -1135.764802
12475.061874 -19507.712718 -1135.764802
12473.075316 -19507.481234 -1135.764802
12471.088757 -19507.249749 -1135.764802
12469.102199 -19507.018265 -1135.764802
12467.115640 -19506.786780 -1135.764802
12465.129081 -19506.555296 -1135.764802
12463.142523 -19506.323811 -1135.764802
12461.155964 -19506.092326 -1135.764802
12459.169406 -19505.860842 -1135.764802
12457.182847 -19505.629357 -1135.764802
12455.196289 -19505.397873 -1135.764802
12453.209730 -19505.166388 -1135.764802
12451.223172 -19504.934903 -1135.764802
12449.236613 -19504.703419 -1135.764802
12447.250054 -19504.471934 -1135.764802
12445.263496 -19504.240450 -1135.764802
12443.276937 -19504.008965 -1135.764802
12441.290379 -19503.777481 -1135.764802
12439.303820 -19503.545996 -1135.764802
12437.317262 -19503.314511 -1135.764802
12435.330703 -19503.083027 -1135.764802
12433.344145 -19502.851542 -1135.764802
12431.357586 -19502.620058 -1135.764802
12429.371027 -19502.388573 -1135.764802
12427.384469 -19502.157089 -1135.764802
12425.397910 -19501.925604 -1135.764802
12423.411352 -19501.694119 -1135.764802
12421.424793 -19501.462635 -1135.764802
12419.438235 -19501.231150 -1135.764802
12417.451676 -19500.999666 -1135.764802
12415.465118 -19500.768181 -1135.764802
12413.478559 -19500.536696 -1135.764802
12411.492000 -19500.305212 -1135.764802
12409.505442 -19500.073727 -1135.764802
12407.518883 -19499.842243 -1135.764802
12405.532325 -19499.610758 -1135.764802
12403.545766 -19499.379274 -1135.764802
12401.559208 -19499.147789 -1135.764802
12399.572649 -19498.916304 -1135.764802
12397.586091 -19498.684820 -1135.764802
12395.599532 -19498.453335 -1135.764802
12393.612973 -19498.221851 -1135.764802
12391.626415 -19497.990366 -1135.764802
12389.639856 -19497.758882 -1135.764802
12387.653298 -19497.527397 -1135.764802
12385.666739 -19497.295912 -1135.764802
12383.680181 -19497.064428 -1135.764802
12381.693622 -19496.832943 -1135.764802
12379.707064 -19496.601459 -1135.764802
12377.720505 -19496.369974 -1135.764802
12375.733946 -19496.138490 -1135.764802
12373.747388 -19495.907005 -1135.764802
12371.760829 -19495.675520 -1135.764802
12369.774271 -19495.444036 -1135.764802
12367.787712 -19495.212551 -1135.764802
12365.801154 -19494.981067 -1135.764802
12363.814595 -19494.749582 -1135.764802
12361.828037 -19494.518097 -1135.764802
12359.841478 -19494.286613 -1135.764802
12357.854919 -19494.055128 -1135.764802
12355.868361 -19493.823644 -1135.764802
12353.881802 -19493.592159 -1135.764802
12351.895244 -19493.360675 -1135.764802
12349.908685 -19493.129190 -1135.764802
12347.922127 -19492.897705 -1135.764802
12345.935568 -19492.666221 -1135.764802
12343.949010 -19492.434736 -1135.764802
12341.962451 -19492.203252 -1135.764802
12339.975892 -19491.971767 -1135.764802
12337.989334 -19491.740283 -1135.764802
12336.002775 -19491.508798 -1135.764802
12334.016217 -19491.277313 -1135.764802
12332.029658 -19491.045829 -1135.764802
12330.043100 -19490.814344 -1135.764802
12328.056541 -19490.582860 -1135.764802
12326.069983 -19490.351375 -1135.764802
12324.083424 -19490.119891 -1135.764802
12322.096865 -19489.888406 -1135.764802
12320.110307 -19489.656921 -1135.764802
12318.123748 -19489.425437 -1135.764802
12316.137190 -19489.193952 -1135.764802
12314.150631 -19488.962468 -1135.764802
12312.164073 -19488.730983 -1135.764802
12310.177514 -19488.499498 -1135.764802
12308.190956 -19488.268014 -1135.764802
12306.204397 -19488.036529 -1135.764802
12304.217839 -19487.805045 -1135.764802
12302.231280 -19487.573560 -1135.764802
12300.244721 -19487.342076 -1135.764802
12298.258163 -19487.110591 -1135.764802
12296.271604 -19486.879106 -1135.764802
12294.285046 -19486.647622 -1135.764802
12292.298487 -19486.416137 -1135.764802
12290.311929 -19486.184653 -1135.764802
12288.325370 -19485.953168 -1135.764802
12286.338812 -19485.721684 -1135.764802
12284.352253 -19485.490199 -1135.764802
12282.365694 -19485.258714 -1135.764802
12280.379136 -19485.027230 -1135.764802
12278.392577 -19484.795745 -1135.764802
12276.406019 -19484.564261 -1135.764802
12274.419460 -19484.332776 -1135.764802
12272.432902 -19484.101292 -1135.764802
12270.446343 -19483.869807 -1135.764802
12268.459785 -19483.638322 -1135.764802
12266.473226 -19483.406838 -1135.764802
12264.486667 -19483.175353 -1135.764802
12262.500109 -19482.943869 -1135.764802
12260.513550 -19482.712384 -1135.764802
12258.526992 -19482.480899 -1135.764802
12256.540433 -19482.249415 -1135.764802
12254.553875 -19482.017930 -1135.764802
12252.567316 -19481.786446 -1135.764802
12250.580758 -19481.554961 -1135.764802
12248.594199 -19481.323477 -1135.764802
12246.607640 -19481.091992 -1135.764802
12244.621082 -19480.860507 -1135.764802
12242.634523 -19480.629023 -1135.764802
12240.647965 -19480.397538 -1135.764802
12238.661406 -19480.166054 -1135.764802
12236.674848 -19479.934569 -1135.764802
12234.688289 -19479.703085 -1135.764802
12232.701731 -19479.471600 -1135.764802
12230.715172 -19479.240115 -1135.764802
12228.728613 -19479.008631 -1135.764802
12226.742055 -19478.777146 -1135.764802
12224.755496 -19478.545662 -1135.764802
12222.768938 -19478.314177 -1135.764802
12220.782379 -19478.082692 -1135.764802
12218.795821 -19477.851208 -1135.764802
12216.809262 -19477.619723 -1135.764802
12214.822704 -19477.388239 -1135.764802
12212.836145 -19477.156754 -1135.764802
12210.849586 -19476.925270 -1135.764802
12208.863028 -19476.693785 -1135.764802
12206.876469 -19476.462300 -1135.764802
12204.889911 -19476.230816 -1135.764802
12202.903352 -19475.999331 -1135.764802
12200.916794 -19475.767847 -1135.764802
12198.930235 -19475.536362 -1135.764802
12196.943677 -19475.304878 -1135.764802
12194.957118 -19475.073393 -1135.764802
12192.970559 -19474.841908 -1135.764802
12190.984001 -19474.610424 -1135.764802
12188.997442 -19474.378939 -1135.764802
12187.010884 -19474.147455 -1135.764802
12185.024325 -19473.915970 -1135.764802
12183.037767 -19473.684486 -1135.764802
12181.051208 -19473.453001 -1135.764802
12179.064650 -19473.221516 -1135.764802
12177.078091 -19472.990032 -1135.764802
12175.091532 -19472.758547 -1135.764802
12173.104974 -19472.527063 -1135.764802
12171.118415 -19472.295578 -1135.764802
12169.131857 -19472.064093 -1135.764802
12167.145298 -19471.832609 -1135.764802
12165.158740 -19471.601124 -1135.764802
12163.172181 -19471.369640 -1135.764802
12161.185623 -19471.138155 -1135.764802
12159.199064 -19470.906671 -1135.764802
12157.212505 -19470.675186 -1135.764802
12155.225947 -19470.443701 -1135.764802
12153.239388 -19470.212217 -1135.764802
12151.252830 -19469.980732 -1135.764802
12149.266271 -19469.749248 -1135.764802
12147.279713 -19469.517763 -1135.764802
12145.293154 -19469.286279 -1135.764802
12143.306596 -19469.054794 -1135.764802
12141.320037 -19468.823309 -1135.764802
12139.333478 -19468.591825 -1135.764802
12137.346920 -19468.360340 -1135.764802
12135.360361 -19468.128856 -1135.764802
12133.373803 -19467.897371 -1135.764802
12131.387244 -19467.665887 -1135.764802
12129.400686 -19467.434402 -1135.764802
12127.414127 -19467.202917 -1135.764802
12125.427569 -19466.971433 -1135.764802
12123.441010 -19466.739948 -1135.764802
12121.454451 -19466.508464 -1135.764802
12119.467893 -19466.276979 -1135.764802
12117.481334 -19466.045494 -1135.764802
12115.494776 -19465.814010 -1135.764802
12113.508217 -19465.582525 -1135.764802
12111.521659 -19465.351041 -1135.764802
12109.535100 -19465.119556 -1135.764802
12107.548542 -19464.888072 -1135.764802
12105.561983 -19464.656587 -1135.764802
12103.575425 -19464.425102 -1135.764802
12101.588866 -19464.193618 -1135.764802
12099.602307 -19463.962133 -1135.764802
12097.615749 -19463.730649 -1135.764802
12095.629190 -19463.499164 -1135.764802
12093.642632 -19463.267680 -1135.764802
12091.656073 -19463.036195 -1135.764802
12089.669515 -19462.804710 -1135.764802
12087.682956 -19462.573226 -1135.764802
12085.696398 -19462.341741 -1135.764802
12083.709839 -19462.110257 -1135.764802
12081.723280 -19461.878772 -1135.764802
12079.736722 -19461.647288 -1135.764802
12077.750163 -19461.415803 -1135.764802
12075.763605 -19461.184318 -1135.764802
12073.777046 -19460.952834 -1135.764802
12071.790488 -19460.721349 -1135.764802
12069.803929 -19460.489865 -1135.764802
12067.817371 -19460.258380 -1135.764802
12065.830812 -19460.026895 -1135.764802
12063.844253 -19459.795411 -1135.764802
12061.857695 -19459.563926 -1135.764802
12059.871136 -19459.332442 -1135.764802
12057.884578 -19459.100957 -1135.764802
12055.898019 -19458.869473 -1135.764802
12053.911461 -19458.637988 -1135.764802
12051.924902 -19458.406503 -1135.764802
12049.938344 -19458.175019 -1135.764802
12047.951785 -19457.943534 -1135.764802
12045.965226 -19457.712050 -1135.764802
12043.978668 -19457.480565 -1135.764802
12041.992109 -19457.249081 -1135.764802
12040.005551 -19457.017596 -1135.764802
12038.018992 -19456.786111 -1135.764802
12036.032434 -19456.554627 -1135.764802
12034.045875 -19456.323142 -1135.764802
12032.059317 -19456.091658 -1135.764802
12030.072758 -19455.860173 -1135.764802
12028.086199 -19455.628688 -1135.764802
12026.099641 -19455.397204 -1135.764802
12024.113082 -19455.165719 -1135.764802
12022.126524 -19454.934235 -1135.764802
12020.139965 -19454.702750 -1135.764802
12018.153407 -19454.471266 -1135.764802
12016.166848 -19454.239781 -1135.764802
12014.180290 -19454.008296 -1135.764802
12012.193731 -19453.776812 -1135.764802
12010.207172 -19453.545327 -1135.764802
12008.220614 -19453.313843 -1135.764802
12006.234055 -19453.082358 -1135.764802
12004.247497 -19452.850874 -1135.764802
12002.260938 -19452.619389 -1135.764802
12000.274380 -19452.387904 -1135.764802
11998.287821 -19452.156420 -1135.764802
11996.301263 -19451.924935 -1135.764802
11994.314704 -19451.693451 -1135.764802
11992.328145 -19451.461966 -1135.764802
11990.341587 -19451.230482 -1135.764802
11988.355028 -19450.998997 -1135.764802
11986.368470 -19450.767512 -1135.764802
11984.381911 -19450.536028 -1135.764802
11982.395353 -19450.304543 -1135.764802
11980.408794 -19450.073059 -1135.764802
11978.422236 -19449.841574 -1135.764802
11976.435677 -19449.610089 -1135.764802
11974.449118 -19449.378605 -1135.764802
11972.462560 -19449.147120 -1135.764802
11970.476001 -19448.915636 -1135.764802
11968.489443 -19448.684151 -1135.764802
11966.502884 -19448.452667 -1135.764802
11964.516326 -19448.221182 -1135.764802
11962.529767 -19447.989697 -1135.764802
11960.543209 -19447.758213 -1135.764802
11958.556650 -19447.526728 -1135.764802
11956.570091 -19447.295244 -1135.764802
11954.583533 -19447.063759 -1135.764802
11952.596974 -19446.832275 -1135.764802
11950.610416 -19446.600790 -1135.764802
11948.623857 -19446.369305 -1135.764802
11946.637299 -19446.137821 -1135.764802
11944.650740 -19445.906336 -1135.764802
11942.664182 -19445.674852 -1135.764802
11940.677623 -19445.443367 -1135.764802
11938.691064 -19445.211883 -1135.764802
11936.704506 -19444.980398 -1135.764802
11934.717947 -19444.748913 -1135.764802
11932.731389 -19444.517429 -1135.764802
11930.744830 -19444.285944 -1135.764802
11928.758272 -19444.054460 -1135.764802
11926.771713 -19443.822975 -1135.764802
11924.785155 -19443.591490 -1135.764802
11922.798596 -19443.360006 -1135.764802
11920.812037 -19443.128521 -1135.764802
11918.825479 -19442.897037 -1135.764802
11916.838920 -19442.665552 -1135.764802
11914.852362 -19442.434068 -1135.764802
11912.865803 -19442.202583 -1135.764802
11910.879245 -19441.971098 -1135.764802
11908.892686 -19441.739614 -1135.764802
11906.906128 -19441.508129 -1135.764802
11904.919569 -19441.276645 -1135.764802
11902.933010 -19441.045160 -1135.764802
11900.946452 -19440.813676 -1135.764802
11898.959893 -19440.582191 -1135.764802
11896.973335 -19440.350706 -1135.764802
11894.986776 -19440.119222 -1135.764802
11893.000218 -19439.887737 -1135.764802
11891.013659 -19439.656253 -1135.764802
11889.027101 -19439.424768 -1135.764802
11887.040542 -19439.193284 -1135.764802
11885.053984 -19438.961799 -1135.764802
11883.067425 -19438.730314 -1135.764802
11881.080866 -19438.498830 -1135.764802
11879.094308 -19438.267345 -1135.764802
11877.107749 -19438.035861 -1135.764802
11875.121191 -19437.804376 -1135.764802
11873.134632 -19437.572891 -1135.764802
11871.148074 -19437.341407 -1135.764802
11869.161515 -19437.109922 -1135.764802
11867.174957 -19436.878438 -1135.764802
11865.188398 -19436.646953 -1135.764802
11863.201839 -19436.415469 -1135.764802
11861.215281 -19436.183984 -1135.764802
11859.228722 -19435.952499 -1135.764802
11857.242164 -19435.721015 -1135.764802
11855.255605 -19435.489530 -1135.764802
11853.269047 -19435.258046 -1135.764802
11851.282488 -19435.026561 -1135.764802
11849.295930 -19434.795077 -1135.764802
11847.309371 -19434.563592 -1135.764802
11845.322812 -19434.332107 -1135.764802
11843.336254 -19434.100623 -1135.764802
11841.349695 -19433.869138 -1135.764802
11839.363137 -19433.637654 -1135.764802
11837.376578 -19433.406169 -1135.764802
11835.390020 -19433.174684 -1135.764802
11833.403461 -19432.943200 -1135.764802
11831.416903 -19432.711715 -1135.764802
11829.430344 -19432.480231 -1135.764802
11827.443785 -19432.248746 -1135.764802
11825.457227 -19432.017262 -1135.764802
11823.470668 -19431.785777 -1135.764802
11821.484110 -19431.554292 -1135.764802
11819.497551 -19431.322808 -1135.764802
11817.510993 -19431.091323 -1135.764802
11815.524434 -19430.859839 -1135.764802
11813.537876 -19430.628354 -1135.764802
11811.551317 -19430.396870 -1135.764802
11809.564758 -19430.165385 -1135.764802
11807.578200 -19429.933900 -1135.764802
11805.591641 -19429.702416 -1135.764802
11803.605083 -19429.470931 -1135.764802
11801.618524 -19429.239447 -1135.764802
11799.631966 -19429.007962 -1135.764802
11797.645407 -19428.776478 -1135.764802
11795.658849 -19428.544993 -1135.764802
11793.672290 -19428.313508 -1135.764802
11791.685731 -19428.082024 -1135.764802
11789.699173 -19427.850539 -1135.764802
11787.712614 -19427.619055 -1135.764802
11785.726056 -19427.387570 -1135.764802
11783.739497 -19427.156085 -1135.764802
11781.752939 -19426.924601 -1135.764802
11779.766380 -19426.693116 -1135.764802
11777.779822 -19426.461632 -1135.764802
11775.793263 -19426.230147 -1135.764802
11773.806704 -19425.998663 -1135.764802
11771.820146 -19425.767178 -1135.764802
11769.833587 -19425.535693 -1135.764802
11767.847029 -19425.304209 -1135.764802
11765.860470 -19425.072724 -1135.764802
11763.873912 -19424.841240 -1135.764802
11761.887353 -19424.609755 -1135.764802
11759.900795 -19424.378271 -1135.764802
11757.914236 -19424.146786 -1135.764802
11755.927677 -19423.915301 -1135.764802
11753.941119 -19423.683817 -1135.764802
11751.954560 -19423.452332 -1135.764802
11749.968002 -19423.220848 -1135.764802
11747.981443 -19422.989363 -1135.764802
11745.994885 -19422.757879 -1135.764802
11744.008326 -19422.526394 -1135.764802
11742.021768 -19422.294909 -1135.764802
11740.035209 -19422.063425 -1135.764802
11738.048650 -19421.831940 -1135.764802
11736.062092 -19421.600456 -1135.764802
11734.075533 -19421.368971 -1135.764802
11732.088975 -19421.137486 -1135.764802
11730.102416 -19420.906002 -1135.764802
11728.115858 -19420.674517 -1135.764802
11726.129299 -19420.443033 -1135.764802
11724.142741 -19420.211548 -1135.764802
11722.156182 -19419.980064 -1135.764802
11720.169623 -19419.748579 -1135.764802
11718.183065 -19419.517094 -1135.764802
11716.196506 -19419.285610 -1135.764802
11714.209948 -19419.054125 -1135.764802
11712.223389 -19418.822641 -1135.764802
11710.236831 -19418.591156 -1135.764802
11708.250272 -19418.359672 -1135.764802
11706.263714 -19418.128187 -1135.764802
11704.277155 -19417.896702 -1135.764802
11702.290596 -19417.665218 -1135.764802
11700.304038 -19417.433733 -1135.764802
11698.317479 -19417.202249 -1135.764802
11696.330921 -19416.970764 -1135.764802
11694.344362 -19416.739280 -1135.764802
11692.357804 -19416.507795 -1135.764802
11690.371245 -19416.276310 -1135.764802
11688.000000 -19416.000000 -1135.764802
11686.014630 -19416.241464 -1135.764802
11684.029259 -19416.482928 -1135.764802
11682.043889 -19416.724392 -1135.764802
11680.058519 -19416.965856 -1135.764802
11678.073149 -19417.207320 -1135.764802
11676.087778 -19417.448784 -1135.764802
11674.102408 -19417.690248 -1135.764802
11672.117038 -19417.931712 -1135.764802
11670.131667 -19418.173176 -1135.764802
11668.146297 -19418.414640 -1135.764802
11666.160927 -19418.656103 -1135.764802
11664.175557 -19418.897567 -1135.764802
11662.190186 -19419.139031 -1135.764802
11660.204816 -19419.380495 -1135.764802
11658.219446 -19419.621959 -1135.764802
11656.234075 -19419.863423 -1135.764802
11654.248705 -19420.104887 -1135.764802
11652.263335 -19420.346351 -1135.764802
11650.277965 -19420.587815 -1135.764802
11648.292594 -19420.829279 -1135.764802
11646.307224 -19421.070743 -1135.764802
11644.321854 -19421.312207 -1135.764802
11642.336483 -19421.553671 -1135.764802
11640.351113 -19421.795135 -1135.764802
11638.365743 -19422.036599 -1135.764802
11636.380373 -19422.278063 -1135.764802
11634.395002 -19422.519527 -1135.764802
11632.409632 -19422.760991 -1135.764802
11630.424262 -19423.002455 -1135.764802
11628.438892 -19423.243919 -1135.764802
11626.453521 -19423.485383 -1135.764802
11624.468151 -19423.726847 -1135.764802
11622.482781 -19423.968310 -1135.764802
11620.497410 -19424.209774 -1135.764802
11618.512040 -19424.451238 -1135.764802
11616.526670 -19424.692702 -1135.764802
11614.541300 -19424.934166 -1135.764802
11612.555929 -19425.175630 -1135.764802
11610.570559 -19425.417094 -1135.764802
11608.585189 -19425.658558 -1135.764802
11606.599818 -19425.900022 -1135.764802
11604.614448 -19426.141486 -1135.764802
11602.629078 -19426.382950 -1135.764802
11600.643708 -19426.624414 -1135.764802
11598.658337 -19426.865878 -1135.764802
11596.672967 -19427.107342 -1135.764802
11594.687597 -19427.348806 -1135.764802
11592.702226 -19427.590270 -1135.764802
11590.716856 -19427.831734 -1135.764802
11588.731486 -19428.073198 -1135.764802
11586.746116 -19428.314662 -1135.764802
11584.760745 -19428.556126 -1135.764802
11582.775375 -19428.797590 -1135.764802
11580.790005 -19429.039053 -1135.764802
11578.804634 -19429.280517 -1135.764802
11576.819264 -19429.521981 -1135.764802
11574.833894 -19429.763445 -1135.764802
11572.848524 -19430.004909 -1135.764802
11570.863153 -19430.246373 -1135.764802
11568.877783 -19430.487837 -1135.764802
11566.892413 -19430.729301 -1135.764802
11564.907042 -19430.970765 -1135.764802
11562.921672 -19431.212229 -1135.764802
11560.936302 -19431.453693 -1135.764802
11558.950932 -19431.695157 -1135.764802
11556.965561 -19431.936621 -1135.764802
11554.980191 -19432.178085 -1135.764802
11552.994821 -19432.419549 -1135.764802
11551.009450 -19432.661013 -1135.764802
11549.024080 -19432.902477 -1135.764802
11547.038710 -19433.143941 -1135.764802
11545.053340 -19433.385405 -1135.764802
11543.067969 -19433.626869 -1135.764802
11541.082599 -19433.868333 -1135.764802
11539.097229 -19434.109796 -1135.764802
11537.111859 -19434.351260 -1135.764802
11535.126488 -19434.592724 -1135.764802
11533.141118 -19434.834188 -1135.764802
11531.155748 -19435.075652 -1135.764802
11529.170377 -19435.317116 -1135.764802
11527.185007 -19435.558580 -1135.764802
11525.199637 -19435.800044 -1135.764802
11523.214267 -19436.041508 -1135.764802
11521.228896 -19436.282972 -1135.764802
11519.243526 -19436.524436 -1135.764802
11517.258156 -19436.765900 -1135.764802
11515.272785 -19437.007364 -1135.764802
11513.287415 -19437.248828 -1135.764802
11511.302045 -19437.490292 -1135.764802
11509.316675 -19437.731756 -1135.764802
11507.331304 -19437.973220 -1135.764802
11505.345934 -19438.214684 -1135.764802
11503.360564 -19438.456148 -1135.764802
11501.375193 -19438.697612 -1135.764802
11499.389823 -19438.939076 -1135.764802
11497.404453 -19439.180540 -1135.764802
11495.419083 -19439.422003 -1135.764802
11493.433712 -19439.663467 -1135.764802
11491.448342 -19439.904931 -1135.764802
11489.462972 -19440.146395 -1135.764802
11487.477601 -19440.387859 -1135.764802
11485.492231 -19440.629323 -1135.764802
11483.506861 -19440.870787 -1135.764802
11481.521491 -19441.112251 -1135.764802
11479.536120 -19441.353715 -1135.764802
11477.550750 -19441.595179 -1135.764802
11475.565380 -19441.836643 -1135.764802
11473.580009 -19442.078107 -1135.764802
11471.594639 -19442.319571 -1135.764802
11469.609269 -19442.561035 -1135.764802
11467.623899 -19442.802499 -1135.764802
11465.638528 -19443.043963 -1135.764802
11463.653158 -19443.285427 -1135.764802
11461.667788 -19443.526891 -1135.764802
11459.682417 -19443.768355 -1135.764802
11457.697047 -19444.009819 -1135.764802
11455.711677 -19444.251283 -1135.764802
11453.726307 -19444.492746 -1135.764802
11451.740936 -19444.734210 -1135.764802
11449.755566 -19444.975674 -1135.764802
11447.770196 -19445.217138 -1135.764802
11445.784826 -19445.458602 -1135.764802
11443.799455 -19445.700066 -1135.764802
11441.814085 -19445.941530 -1135.764802
11439.828715 -19446.182994 -1135.764802
11437.843344 -19446.424458 -1135.764802
11435.857974 -19446.665922 -1135.764802
11433.872604 -19446.907386 -1135.764802
11431.887234 -19447.148850 -1135.764802
11429.901863 -19447.390314 -1135.764802
11427.916493 -19447.631778 -1135.764802
11425.931123 -19447.873242 -1135.764802
11423.945752 -19448.114706 -1135.764802
11421.960382 -19448.356170 -1135.764802
11419.975012 -19448.597634 -1135.764802
11417.989642 -19448.839098 -1135.764802
11416.004271 -19449.080562 -1135.764802
11414.018901 -19449.322026 -1135.764802
11412.033531 -19449.563490 -1135.764802
11410.048160 -19449.804953 -1135.764802
11408.062790 -19450.046417 -1135.764802
11406.077420 -19450.287881 -1135.764802
11404.092050 -19450.529345 -1135.764802
11402.106679 -19450.770809 -1135.764802
11400.121309 -19451.012273 -1135.764802
11398.135939 -19451.253737 -1135.764802
11396.150568 -19451.495201 -1135.764802
11394.165198 -19451.736665 -1135.764802
